ncols         438
nrows         37
xllcenter     359715
yllcenter     507395
cellsize      5
nodata_value  -9999
-9999 -9999 -9999 -9999 -9999 -9999 -9999 -9999 -9999 -9999 -9999 -9999 60.5 60.5 60.61 60.58 60.43 60.64 60.66 60.58 60.57 60.62 60.8 61.25 61.65 61.64 61.64 61.63 61.68 60.72 60.68 60.76 60.71 60.7 60.67 60.1 57.01 56.35 56.06 56.1 56.05 56.29 57.86 57.96 57.8 57.68 57.76 57.75 57.77 57.9 57.34 55.78 53.15 51.08 51.02 51 50.99 50.94 50.93 50.94 50.94 50.94 50.95 50.95 50.98 51.61 52.58 53.39 54.2 56.11 58.49 58.24 58.02 58.15 58.1 58.11 58.07 58.06 58.09 57.98 57.88 57.81 57.73 57.78 57.74 57.74 57.85 57.87 57.91 57.99 58.33 59.15 59.78 58.51 58.47 58.61 58.68 58.64 58.59 58.55 58.58 58.6 58.57 58.81 58.82 58.83 58.84 58.78 58.67 58.63 58.63 58.47 58.26 58.36 58.44 58.35 58.17 57.74 56.76 54.77 51.3 50.91 50.95 50.88 50.87 50.86 50.85 50.85 52.85 55.26 57.8 58.83 59.03 59.12 58.61 58.51 58.38 58.42 58.56 58.43 58.43 58.43 58.48 58.46 58.51 58.58 58.53 58.52 58.58 58.6 58.59 58.58 58.52 58.53 58.5 58.5 58.48 58.5 58.61 58.63 58.62 58.44 58.37 58.41 58.39 58.38 58.43 58.53 58.6 58.56 58.52 58.68 58.53 58.58 58.66 58.9 58.68 58.52 58.44 58.89 58.95 58.71 58.81 58.92 59.06 59.08 59.02 59.04 59.01 58.89 58.65 58.63 58.59 58.6 58.7 58.86 58.61 58.42 58.27 58.28 58.2 58.21 58.25 58.3 58.23 58.26 58.34 58.38 58.34 58.32 58.3 58.54 58.36 58.39 58.47 58.58 58.23 56.25 54.97 53.35 52.99 52.9 52.87 52.63 52.63 52.31 50.91 50.78 50.79 50.8 50.77 50.89 51.49 52.32 52.61 52.79 52.94 53.01 54.25 55.94 56.32 57.32 59.02 59.42 59.47 58.45 57.93 57.51 57.21 57.1 57.04 58.76 57.11 57.05 57.05 56.92 56.96 56.87 56.89 56.88 56.85 56.88 56.78 56.8 56.67 56.89 56.7 56.64 56.46 56.36 56.56 56.51 56.43 56.32 55.08 55.43 55.78 55.76 55.66 55.8 55.91 56.04 56.24 56.28 56.22 56.16 56.2 56.71 56.7 56.6 56.71 56.83 56.94 56.77 56.69 56.82 56.84 55.67 56.9 56.98 57.02 57.13 57.22 57.44 57.5 58.2 60.34 60.31 60.27 60.29 59.55 60.18 60.51 60.6 60.64 60.84 60.76 60.86 60.83 60.98 61.06 61.54 61.47 61.53 62.33 62.35 62.21 62.17 62.05 62 62.02 62.01 61.99 61.74 61.48 61.44 61.58 61.74 61.72 61.76 61.81 61.83 61.87 61.91 61.87 61.99 62.04 62.14 62.17 62.27 62.28 62.21 62.15 62.14 62.19 62.12 62.26 62.43 62.59 62.56 62.52 62.48 62.08 62.01 61.88 61.98 62 62.76 62.77 62.78 62.87 62.89 63.06 63.12 63.16 63.27 63.4 63.33 63.33 63.45 63.55 63.44 63.46 63.5 63.54 63.53 63.67 63.56 63.52 63.54 63.58 63.64 63.66 63.75 63.71 63.6 63.53 63.53 63.19 63.15 63.46 63.48 63.54 63.46 63.47 63.48 63.5 63.55 63.58 63.63 63.61 63.64 63.64 63.66 63.66 63.67 63.53 63.53 63.76 63.79 63.72 63.79 63.79 63.84 63.83 63.32 63.52 63.64 63.59 63.57 63.58 63.71 63.67 63.69 63.76 63.68 63.73 63.71
-9999 -9999 -9999 -9999 -9999 -9999 -9999 -9999 -9999 -9999 -9999 -9999 59.9 60.41 60.44 60.43 60.46 60.48 60.86 60.4 60.42 60.71 60.59 60.6 60.6 60.64 60.58 60.74 61.24 61.68 61.65 61.68 60.72 60.69 60.73 60.14 57.92 56.37 56.02 56.04 55.96 56.32 57.17 57.56 57.68 57.85 58.06 57.81 57.84 57.69 56.67 54.86 52.2 51.03 51.01 50.99 50.97 50.95 50.92 50.91 50.92 50.92 50.92 50.95 50.91 52.13 52.54 53.69 56.37 57.96 58.47 58.35 58.27 58.13 58.19 58.22 58.16 58.06 58.03 57.99 58.07 57.99 57.87 57.76 57.82 57.88 57.88 57.88 57.87 57.9 57.99 58.09 58.25 58.51 58.5 58.61 58.78 58.67 58.58 58.54 58.54 58.64 58.53 58.69 58.72 58.83 58.92 58.79 58.72 58.57 58.61 58.44 58.48 58.33 58.44 58.29 57.75 56.92 55.67 53.32 51.05 50.99 50.98 50.91 50.9 50.89 50.88 51 53.36 55.86 58.67 58.84 59.04 58.9 58.68 58.73 58.39 58.42 58.53 58.33 58.39 58.45 58.44 58.46 58.52 58.57 58.56 58.51 58.59 58.61 58.76 58.62 58.66 58.66 58.65 58.78 58.73 58.51 58.54 58.52 58.51 58.51 58.51 58.57 58.44 58.39 58.43 58.59 58.55 58.67 58.55 58.55 58.56 59.02 58.59 58.82 58.57 58.54 58.56 58.96 58.82 58.74 58.76 59 59.08 59.03 58.99 58.95 58.88 58.83 58.85 58.87 58.79 58.69 58.66 58.71 58.65 58.77 59 58.71 58.38 58.27 58.22 58.26 58.26 58.37 58.46 58.32 58.17 58.31 58.29 58.21 58.29 58.42 58.46 58.38 56.72 55.12 53.4 52.92 52.94 52.9 52.57 52.58 52.25 50.94 50.78 50.69 50.73 50.78 50.81 51.41 52.25 52.72 52.66 52.92 52.8 53.94 55.63 56.19 57.25 58.92 59.34 59.41 58.51 57.87 57.77 57.27 57.07 56.95 56.9 56.99 57.02 57.09 57.1 56.86 56.92 56.87 56.85 56.87 56.92 56.84 56.79 56.78 56.74 56.91 56.73 56.53 56.48 56.5 56.5 56.44 56.41 56.36 56.41 55.82 54.73 55.66 55.82 55.8 55.99 56.21 56.12 56.23 56.19 56.21 56.24 56.73 56.74 56.67 56.76 56.96 56.79 56.7 56.64 56.75 56.49 56.57 56.94 56.72 57.02 57.14 57.31 57.38 57.68 59.63 60.58 60.34 60.37 60.46 60.48 60.49 60.55 60.58 60.7 60.71 60.76 60.77 60.86 60.94 61.08 61.48 61.53 62.12 62.44 62.29 62.15 62.05 61.98 62 61.98 62.01 61.89 61.44 61.43 61.42 61.71 61.7 61.7 61.78 61.79 61.78 61.83 61.87 61.87 61.97 61.95 61.93 62.12 62.33 62.27 62.26 62.15 62.01 62.01 62.07 62.25 62.42 62.44 62.17 62.5 61.91 61.84 61.95 61.88 61.98 62.87 62.9 62.87 62.84 62.82 62.84 62.92 63.07 63.23 63.29 63.35 63.26 63.34 63.36 63.36 63.38 63.48 63.57 63.56 63.58 63.62 63.61 63.61 63.57 63.6 63.62 63.68 63.8 63.73 63.64 63.59 63.64 63.38 63.45 63.5 63.41 63.47 63.49 63.45 63.51 63.58 63.54 63.57 63.61 63.59 63.62 63.67 63.63 63.59 63.65 63.73 63.71 63.69 63.77 63.8 63.86 63.43 63.39 63.6 63.64 63.6 63.56 63.53 63.58 63.58 63.62 63.6 63.68 63.68 63.67 63.71 63.7
-9999 -9999 -9999 -9999 -9999 -9999 -9999 -9999 -9999 -9999 -9999 -9999 59.74 59.9 59.94 59.84 60.18 60.41 60.32 60.35 60.38 60.47 60.51 60.34 60.53 60.72 60.67 60.64 60.67 60.66 60.61 60.54 60.58 60.71 60.76 59.87 57.81 56.34 55.91 55.99 56.16 56.67 59 60.1 59.52 58.93 57.93 57.42 57.49 57.17 55.75 54.61 51.98 51.09 51.03 51 50.97 50.95 50.93 50.91 50.89 50.9 50.91 50.96 50.99 52.16 52.33 54.44 57.56 58.76 58.49 58.46 58.43 58.4 58.51 58.37 58.14 58.1 58.04 58.03 58 57.99 58.01 57.9 57.83 57.86 57.99 57.95 57.97 57.97 57.97 58.06 58.33 58.5 58.51 58.64 58.68 58.66 58.56 58.53 58.53 58.64 58.5 58.54 58.63 58.71 58.73 58.78 58.7 58.69 58.53 58.45 58.3 58.26 58.63 58.14 57.62 56.53 54.59 53.18 50.97 50.92 50.9 50.89 50.87 50.85 50.89 52.06 54.16 56.58 58.78 58.99 59.05 58.85 58.66 58.67 58.33 58.44 58.53 58.34 58.4 58.41 58.46 58.48 58.44 58.67 58.53 58.52 58.64 58.66 58.9 58.69 58.82 58.76 58.72 58.77 58.71 58.49 58.46 58.54 58.46 58.53 58.53 58.58 58.58 58.5 58.51 58.64 58.56 58.54 58.54 58.58 58.61 58.8 58.69 58.71 58.54 58.48 58.83 58.99 58.72 58.7 58.9 58.98 59.06 59.03 58.97 58.93 58.88 58.79 58.73 58.78 58.86 58.91 58.89 58.77 58.75 58.78 58.8 58.75 58.74 58.61 58.57 58.56 58.38 58.35 58.52 58.37 58.33 58.31 58.31 58.17 58.4 58.29 58.25 56.42 55.28 53.46 52.81 52.84 52.76 52.5 52.59 52.42 50.92 50.8 50.81 50.78 50.78 50.84 51.44 52.3 52.42 52.7 52.86 52.82 53.57 55.25 56.13 57.21 58.74 59.34 59.39 58.51 57.95 57.68 57.36 57.16 56.96 56.82 56.87 56.94 57.05 57.06 56.96 56.95 56.83 56.9 56.95 56.99 56.84 56.75 56.73 56.71 56.66 56.84 56.72 56.48 56.44 56.62 56.48 56.46 56.54 56.45 56.49 56.53 56.28 54.79 55.88 55.87 55.84 56 56.03 56.17 56.21 56.18 56.64 56.58 56.58 56.65 56.77 56.9 56.75 56.69 56.74 56.9 55.74 56.91 56.98 57.12 57.16 57.22 57.22 57.5 58.46 59.97 60.14 60.21 60.35 60.47 60.67 60.52 60.57 60.62 60.73 60.65 60.7 60.7 60.96 60.91 61.42 61.53 61.61 62.44 62.44 62.37 62.13 62 61.94 62 62.05 61.97 61.59 61.36 61.35 61.75 61.7 61.66 61.72 61.82 61.83 61.8 61.82 61.84 61.8 61.9 61.93 61.91 61.91 61.88 62.07 62.16 61.98 61.98 61.94 61.95 62.15 62.35 62.12 61.89 61.8 61.89 61.82 61.94 62.06 62.78 62.83 62.83 62.82 62.8 62.85 62.88 62.9 62.9 62.96 63.1 63.2 63.22 63.27 63.33 63.33 63.26 63.38 63.46 63.57 63.58 63.65 63.63 63.65 63.72 63.73 63.69 63.79 63.8 63.4 63.64 63.61 63.59 63.46 63.39 63.41 63.44 63.49 63.47 63.49 63.5 63.56 63.61 63.59 63.59 63.56 63.51 63.5 63.62 63.64 63.7 63.77 63.79 63.9 63.91 63.33 63.43 63.57 63.63 63.6 63.54 63.53 63.59 63.52 63.67 63.6 63.64 63.63 63.66 63.66 63.7 63.69 63.62
-9999 -9999 -9999 -9999 -9999 -9999 -9999 -9999 -9999 -9999 -9999 -9999 60.16 59.91 60.11 60.19 60.22 60.26 60.2 60.34 60.31 60.33 60.38 60.4 60.43 60.83 60.42 60.36 60.5 60.58 60.72 60.83 60.81 60.78 60.73 59.52 57.47 56.36 55.97 56.01 56.27 57.75 59.74 60.71 60.74 60.67 60.07 59.75 59.72 58.06 57.16 55.7 52.02 51.06 51.04 51.02 51 50.97 50.94 50.91 50.89 51.05 51.01 50.97 51.01 51.94 52.57 55.23 57.99 58.59 58.99 59.03 58.58 58.59 58.61 58.09 58.12 58.04 57.97 58.02 58.04 58.03 57.9 57.96 57.91 58.42 58.21 58.17 58.23 58.11 58.84 58.33 58.44 58.48 58.56 58.69 58.67 58.61 58.56 58.52 58.54 58.57 58.47 58.62 58.69 58.73 58.73 58.73 58.74 58.7 58.13 58.4 58.33 58.19 58.6 58.65 58.77 57.19 55.05 52.18 50.88 50.87 50.86 50.86 50.85 50.85 50.88 52.84 54.85 57.23 58.93 58.85 58.91 58.81 58.54 58.73 58.41 58.43 58.5 58.45 58.38 58.38 58.36 58.52 58.42 58.49 58.39 58.42 58.5 58.51 58.48 58.49 58.48 58.65 58.64 58.75 58.73 58.55 58.6 58.58 58.55 58.54 58.54 58.57 58.59 58.52 58.53 58.63 58.5 58.7 58.81 58.6 58.63 58.64 58.6 58.64 58.74 58.65 59.09 59.06 58.75 58.85 58.98 59.01 58.82 58.97 59.03 59.06 58.88 58.82 58.72 58.74 58.83 58.92 58.77 58.8 58.76 58.78 58.76 58.79 58.88 58.76 58.58 58.56 58.52 58.52 58.69 58.5 58.4 58.39 58.17 58.34 58.23 58.17 56.49 55.17 53.44 52.96 52.57 52.7 52.57 52.6 52.27 50.78 50.8 50.78 50.78 50.82 50.8 51.18 52.17 52.59 52.67 52.88 52.86 53.51 55.09 56.22 57.06 58.65 59.3 59.36 58.76 58.05 57.57 57.5 57.2 57.07 56.85 56.8 56.88 56.95 56.95 57.01 56.92 56.88 56.86 56.93 56.93 56.9 56.87 56.8 56.76 56.69 56.76 56.73 56.63 56.52 56.56 56.52 56.46 56.55 56.54 56.36 56.54 56.65 56.55 56.09 55.26 55.9 55.99 55.99 56.06 56.19 56.19 56.28 56.72 56.71 56.61 56.72 56.89 56.75 56.67 56.61 56.72 56.39 56.66 56.92 56.96 57.1 57.09 57.26 57.35 57.54 58.18 59.94 60.2 60.29 60.38 60.56 60.48 60.51 60.58 60.64 60.56 60.66 60.64 60.78 60.89 61.2 61.24 61.48 62.42 62.62 62.31 62.11 62.02 61.99 62.01 61.96 62.01 61.85 61.42 61.36 61.52 61.68 61.66 61.67 61.75 61.82 61.85 61.83 61.86 61.87 61.84 61.87 61.91 61.87 61.95 61.85 61.82 61.92 61.91 61.98 61.96 61.91 61.89 61.81 61.85 61.88 61.84 62.1 62.19 62.11 62.13 62.34 62.91 62.74 62.74 62.79 62.93 62.91 62.89 62.84 62.85 62.93 63.05 63.17 63.26 63.36 63.37 63.32 63.3 63.35 63.55 63.59 63.66 63.62 63.72 63.77 63.69 63.51 63.35 63.27 63.41 63.58 63.62 63.61 63.39 63.4 63.45 63.46 63.48 63.51 63.43 63.53 63.57 63.58 63.48 63.51 63.5 63.55 63.57 63.61 63.68 63.79 63.87 63.47 63.33 63.49 63.59 63.55 63.5 63.52 63.52 63.6 63.51 63.49 63.52 63.58 63.67 63.61 63.63 63.68 63.63 63.65 63.9 64.06
-9999 -9999 -9999 -9999 -9999 -9999 -9999 -9999 -9999 -9999 -9999 -9999 60.27 60.26 60.31 60.24 60.32 60.19 60.18 60.26 60.2 60.13 60.25 60.27 60.28 60.3 60.33 60.35 60.5 60.46 60.58 60.78 60.92 60.95 60.85 57.83 56.53 56.39 56.02 56.03 56.39 58.33 60.26 60.75 60.76 60.78 60.77 60.75 60.74 60.21 59.97 57.89 51.49 50.97 51 51.04 51.02 50.99 50.97 50.94 50.95 51.3 51 50.99 50.98 52.09 52.65 55.08 57.92 58.6 59 59.02 58.81 58.62 58.55 58.31 58.15 58.17 58.06 57.97 58.08 58.09 58.01 57.97 57.81 57.92 57.97 57.94 58.09 58.19 58.32 58.32 58.35 58.52 58.65 58.86 58.77 58.85 58.51 58.52 58.6 58.69 58.57 58.85 58.81 58.85 58.83 58.8 58.66 58.33 58.6 58.4 58.22 58.04 58.03 58.61 58.74 56.72 54.98 51.65 50.81 50.82 50.83 50.84 50.85 50.86 50.92 53.33 55.62 58.42 58.89 58.82 58.92 58.83 58.72 58.67 58.7 58.39 58.44 58.69 58.42 58.47 58.46 58.4 58.39 58.43 58.4 58.37 58.4 58.34 58.32 58.34 58.43 58.44 58.48 58.44 58.47 58.42 58.44 58.72 58.55 58.54 58.57 58.57 58.59 58.55 58.56 58.64 58.63 58.54 58.68 58.56 58.64 58.89 58.65 58.7 58.75 58.82 59.08 59.1 58.78 59.07 58.92 58.88 58.87 58.86 58.87 58.89 58.9 58.9 58.87 58.82 58.85 58.9 58.77 58.85 58.83 58.77 58.79 58.79 59.09 59.04 58.94 58.92 58.83 58.6 58.45 58.42 58.37 58.46 58.55 58.27 58.18 56.82 55.14 53.46 52.88 52.74 52.57 52.63 52.65 52.36 50.76 50.8 50.79 50.82 50.77 50.8 51.21 52.21 52.61 52.69 52.77 52.86 53.46 55.13 56.39 56.93 58.61 59.28 59.37 59.07 57.92 57.46 57.31 57.08 56.99 56.94 56.91 56.9 56.84 56.95 57.04 56.97 56.88 56.85 56.85 56.84 56.86 56.85 56.9 56.79 56.73 56.67 56.8 56.64 56.55 56.54 56.54 56.47 56.41 56.52 56.49 56.44 56.55 56.58 56.58 56.66 55.51 55.9 56.01 56.02 56.04 56.1 56.31 56.65 56.59 56.53 56.65 56.79 56.89 56.68 56.6 56.7 56.91 55.82 57.03 56.84 57.04 57.09 57.19 57.34 57.61 57.75 57.82 57.92 59.02 60.18 60.34 60.52 60.55 60.54 60.68 60.66 60.58 60.6 60.62 60.76 60.8 61.21 61.15 61.81 62.24 62.15 62.05 61.96 62.07 61.98 62 62.02 61.95 61.49 61.34 61.35 61.72 61.64 61.61 61.65 61.81 61.8 61.78 61.82 61.85 61.89 61.9 61.9 61.9 61.91 61.95 61.89 61.79 61.83 61.79 61.84 61.9 61.82 61.77 61.78 61.81 61.92 62 62.14 62.3 62.56 62.26 62.41 62.51 62.74 62.79 62.98 63.02 63.03 62.98 62.9 62.88 62.95 63.04 63.19 63.28 63.36 63.42 63.44 63.48 63.48 63.56 63.58 63.58 63.65 63.6 63.3 63.32 63.37 63.14 63.35 63.54 63.59 63.6 63.6 63.42 63.42 63.47 63.49 63.41 63.46 63.53 63.53 63.5 63.46 63.49 63.52 63.56 63.55 63.59 63.74 63.82 63.31 63.39 63.5 63.48 63.47 63.43 63.41 63.51 63.52 63.4 63.43 63.5 63.57 63.6 63.56 63.62 63.61 63.64 63.7 63.92 64.02 64.12 64.36
-9999 -9999 -9999 -9999 -9999 -9999 -9999 -9999 -9999 -9999 -9999 -9999 60.19 60.18 60.24 60.25 60.26 60.29 60.34 60.25 60.17 60.19 60.21 60.14 60.24 60.22 60.22 60.23 60.26 60.35 60.33 60.38 61.01 61.2 60.78 59.85 56.7 56.36 56.1 56.07 56.41 57.87 60.08 60.64 60.22 60.6 60.76 60.77 60.73 60.74 60.82 60.78 51.12 50.99 50.98 50.99 51.01 51 50.99 51.02 51.05 51.74 50.98 51.02 51.13 52.34 53.11 55 57.97 58.75 60.3 59.76 59.28 58.72 58.47 58.33 58.31 58.31 58.08 58.08 58.09 58.06 58.02 57.96 57.9 57.98 57.98 57.98 58.03 58.19 58.37 58.3 58.4 58.67 58.63 58.8 59.07 59.13 59.09 58.76 58.74 58.64 58.64 58.91 58.86 58.85 58.9 58.77 58.65 58.48 58.45 58.37 58.15 57.93 57.9 58.42 58.57 55.98 53.79 51.25 50.83 50.83 50.84 50.85 50.85 50.86 51.37 53.81 56.23 59.38 58.69 58.84 58.89 58.91 58.78 58.65 58.64 58.33 58.43 58.36 58.34 58.39 58.3 58.35 58.35 58.41 58.41 58.4 58.39 58.46 58.36 58.34 58.38 58.39 58.37 58.36 58.36 58.41 58.41 58.48 58.5 58.52 58.56 58.57 58.61 58.59 58.54 58.61 58.6 58.6 58.84 58.51 58.57 58.45 58.47 58.66 58.79 58.89 59 59.05 58.8 59.02 59.12 58.92 58.82 58.79 58.81 58.83 58.92 58.89 58.84 58.75 58.83 58.93 58.89 58.9 58.77 58.76 58.8 58.93 59.01 59.03 58.98 59.02 58.82 58.76 58.58 58.55 58.38 58.43 58.94 58.44 57.82 55.47 53.67 52.8 52.7 52.76 52.73 52.62 52.34 50.83 50.79 50.79 50.77 50.76 50.75 51.21 52.21 52.53 52.77 52.81 52.78 53.36 54.75 56.4 56.79 58.32 59.29 59.38 59 57.6 57.17 57.08 57.1 57.1 56.99 56.93 57.06 57.07 56.97 56.93 56.83 56.86 56.86 56.88 56.83 56.83 56.84 56.82 56.8 56.76 56.67 56.72 56.85 56.62 56.6 56.62 56.5 56.39 56.4 56.53 56.59 56.44 56.56 56.48 56.65 56.57 56.72 54.97 55.98 56.14 56.14 56.19 56.29 56.65 56.6 56.56 56.72 56.84 56.75 56.62 56.58 56.68 56.33 56.61 57.09 56.99 57.11 57.15 57.22 57.47 57.75 57.88 57.93 58.04 58.13 58.42 59.7 60.5 60.66 60.71 60.62 60.5 60.63 60.52 60.63 60.76 60.83 60.85 61.04 61.3 62.03 61.75 61.67 61.92 61.99 61.91 62.05 61.95 61.58 61.29 61.35 61.62 61.63 61.59 61.59 61.82 61.86 61.87 61.8 61.76 61.84 61.92 61.94 61.92 61.9 61.93 61.94 61.85 61.85 61.85 61.73 61.7 61.77 61.74 61.75 61.97 62.02 62.08 62.12 62.34 62.48 62.82 62.61 62.54 62.67 62.8 62.94 63.02 63.06 63.11 63.03 62.94 62.95 63 63.07 63.2 63.37 63.39 63.44 63.55 63.45 63.5 63.51 63.85 63.76 63.46 63.24 63.3 63.1 63.3 63.39 63.33 63.52 63.59 63.62 63.6 63.45 63.47 63.5 63.45 63.51 63.52 63.51 63.46 63.5 63.42 63.47 63.46 63.55 63.69 63.65 63.27 63.41 63.47 63.51 63.4 63.37 63.47 63.46 63.36 63.36 63.46 63.56 63.58 63.54 63.58 63.56 63.63 63.62 63.73 63.86 63.98 64.2 64.32 64.44 -9999
-9999 -9999 -9999 -9999 -9999 -9999 -9999 -9999 -9999 -9999 -9999 -9999 60.18 60.26 60.23 60.26 60.23 60.2 60.24 60.25 60.25 60.29 60.29 60.26 60.3 60.3 60.31 60.16 60.21 60.2 60.18 60.43 60.58 60.72 60.73 60.22 57.26 56.31 56.21 56.2 56.47 57.11 58.74 60.15 60.72 60.72 60.33 60.2 60.35 60.76 60.79 59.37 51.11 51.04 51.01 51 51.02 51.04 51.01 50.88 51.18 51.98 51.02 51.05 51.06 52.31 53.62 56.05 58.56 58.86 61.46 63.33 62.87 62.7 60.78 59.58 58.23 58.26 58.2 58.18 58.16 58.14 58.1 58.02 58.1 58.06 58.3 57.98 57.93 58.02 58.2 58.31 58.42 58.85 58.6 58.93 57.98 58.97 59.06 59 58.97 58.88 58.82 59.02 58.97 58.92 58.9 58.67 58.7 58.81 58.8 58.87 58.78 57.79 57.72 58.67 58.25 55.68 53.37 50.98 50.9 50.84 50.85 50.85 50.86 50.86 52.28 54.38 56.76 59.09 58.99 59.07 58.94 58.71 58.82 58.79 58.69 58.36 58.38 58.42 58.39 58.37 58.24 58.34 58.38 58.37 58.4 58.37 58.39 58.37 58.34 58.35 58.35 58.38 58.47 58.41 58.4 58.38 58.43 58.48 58.52 58.54 58.54 58.61 58.61 58.65 58.72 58.63 58.53 58.69 58.63 58.54 58.52 58.65 58.68 58.74 58.83 58.91 59.16 58.97 58.86 59.08 58.92 58.9 58.93 58.86 58.76 58.76 58.79 58.88 58.73 58.74 58.78 58.87 58.9 58.93 58.78 58.78 58.82 58.9 58.91 58.93 58.95 58.89 58.87 58.59 58.65 58.59 58.36 58.51 58.36 57.13 56.06 53.93 53.02 52.98 52.69 52.65 52.52 52.4 50.85 50.75 50.8 50.8 50.78 50.97 51.27 52.22 52.47 52.61 52.68 52.76 53.16 54.98 56.08 56.71 58.28 59.29 59.4 59.36 57.62 57.28 57.14 57.03 57.04 57.03 56.97 57.08 57.08 57.01 57.03 56.84 56.76 56.64 56.72 56.8 56.83 56.79 56.83 56.86 56.78 56.73 56.62 56.81 56.74 56.53 56.54 56.64 56.48 56.47 56.45 56.54 56.49 56.52 56.51 56.51 56.58 56.75 56.67 55.2 55.87 56.06 56.13 56.37 56.66 56.57 56.48 56.59 56.79 56.83 56.66 56.57 56.69 56.95 56.21 56.92 56.99 57.13 57.07 57.23 57.39 57.59 57.77 58.01 58.03 58.15 58.34 58.56 58.98 59.58 60.41 60.77 60.38 60.49 60.49 60.64 60.64 60.74 60.83 60.82 60.95 61.05 61.41 61.99 61.89 61.91 61.9 61.63 61.64 61.79 61.35 61.33 61.47 61.6 61.6 61.57 61.64 61.8 61.84 61.91 61.85 61.84 61.96 61.94 61.94 61.94 61.95 61.97 61.9 61.85 61.82 61.67 61.7 61.68 61.78 62.06 62.03 62.02 62.11 62.22 62.34 62.4 62.54 62.72 62.86 62.78 62.87 62.85 63.04 63.05 63.09 63.12 63.14 63.05 63.02 63.06 63.14 63.27 63.4 63.58 63.57 63.51 63.54 63.68 64.18 63.46 63.39 63.32 63.09 63.3 63.37 63.34 63.29 63.41 63.56 63.6 63.6 63.52 63.43 63.46 63.46 63.48 63.47 63.58 63.62 63.47 63.55 63.51 63.59 63.67 63.35 63.35 63.44 63.48 63.45 63.35 63.39 63.43 63.36 63.25 63.42 63.5 63.52 63.51 63.58 63.51 63.57 63.64 63.54 63.72 63.71 63.75 63.9 64.13 64.42 64.6 64.93 -9999
-9999 -9999 -9999 -9999 -9999 -9999 -9999 -9999 -9999 -9999 -9999 -9999 60.37 60.17 60.08 60.05 60.19 60.25 60.22 60.19 60.21 60.25 60.25 60.26 60.31 60.32 60.3 60.15 60.22 60.16 60.16 60.35 60.47 60.67 60.64 60.22 57.14 56.44 56.38 56.28 57.03 58.71 58.68 58.7 58.8 59.03 59.64 60.24 60.31 60.36 60.29 52.64 51.11 51.06 51.01 51.03 51.04 51.02 51.01 50.96 51.38 52.16 51.06 50.98 51.03 52.8 54.97 57.54 58.75 59.12 62.23 63.4 62.87 62.77 62.79 62.68 62.74 62.04 59.83 58.86 58.33 58.3 58.24 58.2 58.03 58.13 58.75 58.86 58.28 58.16 58.39 58.46 58.5 58.65 58.72 58.73 57.6 58.58 58.97 58.97 58.94 58.9 58.92 58.99 58.98 59.09 58.78 58.68 58.76 58.76 58.76 58.79 58.79 57.59 57.59 58.26 58.03 55.05 52.95 50.98 50.89 50.89 50.85 50.86 50.87 50.84 53.09 54.97 57.41 58.8 58.82 58.88 58.85 58.71 58.71 58.77 58.7 58.56 58.47 58.47 58.4 58.54 58.33 58.32 58.35 58.38 58.36 58.42 58.38 58.36 58.35 58.35 58.32 58.35 58.38 58.41 58.39 58.46 58.48 58.4 58.44 58.48 58.47 58.57 58.61 58.6 58.66 58.97 58.83 58.62 58.76 58.72 58.6 58.62 58.71 58.78 58.87 58.89 59.19 59.01 58.93 59.07 58.95 58.87 58.93 58.84 58.79 58.78 58.71 58.85 58.67 58.71 58.84 58.89 58.88 58.93 58.78 58.75 58.93 58.85 58.81 58.83 58.85 58.86 58.8 58.64 58.64 58.56 58.49 58.3 57.4 55.59 54.22 53.27 52.82 52.69 52.66 52.53 52.48 50.88 50.8 50.8 50.8 50.79 50.73 51.21 52.24 52.37 52.42 52.71 52.77 52.95 54.47 55.94 56.74 58.14 59.31 59.39 59.23 57.71 57.31 57.29 57.17 57.11 57.04 56.96 56.97 56.99 57.01 57.24 56.91 57.06 56.8 56.57 56.48 56.64 56.7 56.72 56.81 56.77 56.87 56.84 56.84 56.84 56.67 56.56 56.64 56.62 56.51 56.45 56.58 56.53 56.56 56.53 56.51 56.61 56.55 56.67 56.05 55.6 55.84 56.03 56.16 56.27 56.61 56.56 56.5 56.64 56.81 56.7 56.59 56.56 56.66 57.04 57.02 56.95 57.08 57.12 57.21 57.43 57.42 57.75 57.98 57.96 58.16 58.38 58.43 58.79 59.32 60.37 60.5 60.42 60.42 60.46 60.74 60.6 60.67 60.9 60.88 60.88 61.05 61.02 61.08 61.24 61.84 62.01 61.88 61.63 62.29 61.5 61.28 61.3 61.56 61.52 61.51 61.57 61.72 61.69 61.84 61.95 61.95 61.87 61.88 61.97 61.95 61.95 61.96 61.84 61.68 61.57 61.62 61.65 61.78 61.93 62.08 62.1 62.17 62.16 62.35 62.27 62.3 62.48 62.69 62.9 62.94 62.91 62.97 63 63.05 63.04 63.09 63.11 63.11 63.15 63.1 63.11 63.22 63.31 63.47 63.5 63.67 63.49 63.65 63.46 63.37 63.42 63.19 63.36 63.35 63.3 63.4 63.23 63.35 63.38 63.6 63.61 63.58 63.41 63.45 63.39 63.49 63.51 63.51 63.46 63.4 63.56 63.55 63.53 63.25 63.45 63.56 63.36 63.35 63.32 63.44 63.32 63.28 63.37 63.41 63.41 63.44 63.43 63.43 63.52 63.52 63.52 63.65 63.72 63.71 63.72 63.69 63.74 63.94 64.21 63.7 64.3 63.79 -9999
-9999 -9999 -9999 -9999 -9999 -9999 -9999 -9999 -9999 -9999 -9999 -9999 60.26 60.27 60.12 60.09 60.17 60.24 60.17 60.29 60.25 60.26 60.23 60.22 60.24 60.27 60.29 60.32 60.33 60.27 60.18 60.19 60.14 60.42 60.47 59.63 56.98 56.44 56.52 56.42 57.59 58.69 58.76 58.74 58.62 58.64 58.67 58.82 59.6 60.17 60.14 51.27 50.97 51 51.03 51.08 51.02 51.02 51.02 50.99 52.14 51.88 50.96 50.94 51.09 52.44 57.78 58.62 59.13 59.34 61.62 62.93 62.78 62.6 62.72 62.74 62.73 62.72 62.8 62.83 62.84 61.19 59.53 58.2 58.14 58.19 58.56 58.72 59.04 58.79 58.66 58.65 58.65 58.66 58.78 58.83 58.26 59.01 58.98 59.01 58.95 58.99 58.98 59.37 59 59 58.91 58.72 58.84 58.77 58.74 58.76 58.95 57.42 57.35 58.28 57.41 54.54 52.64 51.39 51.33 51.02 50.89 50.87 50.89 50.86 53.41 55.62 58.28 58.67 58.76 58.9 58.69 58.72 58.81 58.7 58.71 58.57 58.45 58.5 58.5 58.43 58.31 58.3 58.32 58.36 58.36 58.4 58.39 58.34 58.34 58.33 58.35 58.33 58.35 58.45 58.46 58.4 58.33 58.34 58.41 58.37 58.41 58.43 58.52 58.57 58.65 58.72 58.76 58.77 58.81 58.99 59.22 59.32 59.03 58.93 58.93 59.03 59.31 59.17 59.09 59.31 58.88 58.92 58.98 58.98 59.05 59.07 58.81 58.93 58.63 58.7 58.88 58.99 59.07 58.96 58.74 58.75 58.93 58.93 58.88 58.84 58.79 58.81 58.63 58.73 58.72 58.51 58.49 57.88 55.91 54.81 53.14 52.85 52.64 52.61 52.41 52.51 51.36 50.79 50.83 50.78 50.77 50.79 51.19 52.27 52.5 52.58 52.68 52.79 52.77 54.18 55.78 56.67 57.95 59.32 59.43 59.26 57.83 57.15 57.34 57.28 57.1 57.03 57.02 57.07 57.11 57.03 57.93 58.07 58.03 57.47 57.19 56.7 56.55 56.44 56.66 56.68 56.75 56.79 56.88 56.72 56.76 56.71 56.51 56.54 56.6 56.53 56.53 56.51 56.61 56.55 56.6 56.55 56.62 56.59 56.49 56.53 55.02 56.1 56.15 56.08 56.2 56.59 56.49 56.48 56.59 56.77 56.82 56.63 56.51 56.61 57.09 57.1 57.05 57.06 57.05 57.31 57.35 57.33 57.6 57.96 57.97 58.07 58.22 58.45 58.87 59.29 59.85 60.41 60.61 60.39 60.5 60.36 60.58 60.55 60.74 60.9 60.95 60.96 60.95 60.99 61.01 61.12 61.26 61.56 61.97 62.18 61.51 61.38 61.29 61.49 61.5 61.5 61.52 61.58 61.67 61.61 61.65 61.71 61.73 61.82 61.75 61.73 61.82 61.74 61.65 61.49 61.66 61.57 61.7 61.83 61.84 61.96 62.05 62.17 62.32 62.34 62.41 62.27 62.32 62.44 62.75 63.05 63 62.98 63.01 63.04 63.1 63.07 63.08 63.11 63.12 63.17 63.21 63.18 63.25 63.34 63.47 63.6 63.61 63.45 63.35 63.27 63.12 63.33 63.37 63.33 63.31 63.32 63.34 63.35 63.38 63.38 63.56 63.59 63.61 63.37 63.44 63.53 63.53 63.44 63.43 63.57 63.53 63.33 63.35 63.51 63.43 63.36 63.3 63.44 63.38 63.27 63.27 63.36 63.37 63.4 63.34 63.36 63.45 63.54 63.44 63.66 63.61 63.67 63.67 63.71 63.65 63.71 63.67 63.74 63.56 63.15 63.93 63.81 63.35 -9999
-9999 -9999 -9999 -9999 -9999 -9999 -9999 -9999 -9999 -9999 -9999 -9999 60.15 60.21 60.24 60.29 60.3 60.29 60.17 60.24 60.09 60.27 60.29 60.37 60.24 60.24 60.27 60.24 60.24 60.25 60.26 60.24 60.2 60.34 60.34 59.38 56.81 56.6 56.62 56.68 58.1 58.64 58.72 58.76 58.65 58.61 58.62 58.75 58.73 58.68 58.36 51.28 51.19 51.11 51.03 50.99 51.01 51 50.99 50.99 52.09 51.47 51.01 50.97 51.26 55.91 60.82 60.16 59.94 59.78 59.5 59.67 61.49 62.36 62.44 62.38 62.48 62.82 62.8 62.73 62.69 62.78 62.71 62.74 62.22 60.03 59.2 58.86 58.86 58.89 58.95 58.95 58.91 58.78 58.76 59.01 58.89 59.06 59.03 59.03 59.04 59.03 59.01 59.12 58.94 58.92 58.87 58.77 58.76 58.73 58.65 58.82 57.33 57.25 57.22 58.18 56.93 54.13 52.13 51.03 51.08 51.06 50.93 50.84 50.87 51.75 54.1 56.09 58.66 58.64 58.66 58.69 58.74 58.66 58.85 58.76 58.65 58.6 58.37 58.52 58.46 58.39 58.62 58.29 58.34 58.33 58.34 58.37 58.35 58.33 58.31 58.31 58.33 58.36 58.35 58.38 58.39 58.42 58.39 58.37 58.42 58.37 58.43 58.45 58.72 58.65 59.16 58.91 58.94 58.95 58.86 58.91 58.91 58.94 58.94 58.97 59.19 59.49 59.47 59.17 59.2 59.05 58.96 58.95 58.88 58.92 58.96 59.06 58.92 58.61 58.6 58.69 58.81 58.82 58.9 58.76 58.74 58.83 58.97 58.96 58.94 58.85 58.81 58.77 58.69 58.56 58.49 58.74 58.25 56.22 54.97 53.24 52.93 52.76 52.65 52.61 52.61 51.8 50.79 50.81 50.81 50.77 50.8 51.42 52.06 52.58 52.57 52.78 52.61 52.8 54.06 55.5 56.68 57.57 59.44 59.48 59.41 57.94 57.18 57.09 57.16 57.14 57.13 57.21 57.13 57.13 57.06 58.98 59.28 58.17 58.21 57.88 57.61 57.03 56.61 56.49 56.37 56.46 56.87 56.8 56.75 56.76 56.83 56.68 56.53 56.58 56.46 56.46 56.45 56.54 56.56 56.68 56.61 56.66 56.66 56.73 56.59 56.37 55 56.17 56 56.11 56.24 56.59 56.51 56.49 56.56 56.76 56.59 56.5 56.46 56.61 56.97 57.05 57.61 57.53 57.1 57.33 57.45 57.5 57.73 57.97 58.38 58.38 58.29 60.04 59.12 59.58 60.36 60.58 60.32 60.41 60.34 60.5 60.54 60.57 60.69 60.71 60.79 60.96 61.14 61.21 61.01 61.01 61.12 61.17 61.37 61.68 61.28 61.27 61.33 61.49 61.47 61.44 61.5 61.69 61.59 61.52 61.54 61.57 61.63 61.65 61.67 61.61 61.59 61.48 61.58 61.58 61.69 61.9 61.91 62.04 61.96 62.03 62.16 62.28 62.37 62.37 62.37 62.44 62.34 62.37 62.65 62.95 63.08 63.02 63.13 63.11 63.14 63.13 63.08 63.1 63.13 63.16 63.31 63.27 63.29 63.57 63.48 63.43 63.3 63.24 63.14 63.35 63.32 63.33 63.31 63.35 63.26 63.37 63.41 63.35 63.31 63.42 63.56 63.57 63.62 63.66 63.55 63.48 63.42 63.41 63.49 63.21 63.41 63.34 63.37 63.26 63.2 63.23 63.26 63.25 63.23 63.24 63.3 63.28 63.43 63.38 63.42 63.53 63.64 63.63 63.57 63.57 63.55 63.63 63.66 63.66 63.65 63.73 63.64 64.18 64.19 64.15 64.01 63.11 63.11 -9999
-9999 -9999 -9999 -9999 -9999 -9999 -9999 -9999 -9999 -9999 -9999 -9999 60.19 60.13 60.12 60.15 60.24 60.19 60.21 60.26 60.3 60.2 60.27 60.29 60.19 60.33 60.18 60.27 60.24 60.2 60.18 60.12 60.02 60.22 60.36 59.23 56.9 56.77 56.79 56.86 58.37 58.62 58.73 58.75 58.66 58.68 58.64 58.8 58.78 58.6 58.29 51.56 51.5 51.35 51.13 51.12 51.07 51.02 51 51.29 52.18 51.08 51.08 51.01 51.61 60.84 60.76 60.93 60.93 60.94 60.68 60.26 59.81 59.66 59.98 60.75 62.12 62.51 62.4 62.65 62.75 62.77 62.74 62.71 62.72 62.73 62.78 62.85 61.27 59.5 59.05 59.09 59.12 59.08 58.91 58.88 58.85 58.91 58.96 58.9 58.96 59.36 59.11 58.99 58.9 58.91 59.25 59.46 58.88 58.8 58.72 58.83 57.87 57.07 57.09 58.31 56.43 53.88 51.53 50.87 50.87 50.85 50.85 50.8 50.85 52.87 54.79 56.98 58.73 58.81 58.73 58.88 58.71 58.75 58.75 58.79 58.6 58.79 58.57 58.45 58.58 58.48 58.44 58.69 58.3 58.35 58.36 58.37 58.34 58.29 58.31 58.34 58.34 58.36 58.34 58.39 58.43 58.43 58.4 58.33 58.38 58.42 58.44 58.42 58.7 58.78 58.86 59.01 59.01 58.87 58.92 59.05 59.09 59.21 59.26 59.12 59.24 59.33 59.34 59.33 59.32 58.92 59.06 58.93 58.99 59.08 59.01 58.92 58.75 58.59 58.6 58.69 58.77 58.82 58.87 58.78 58.71 58.96 58.85 58.87 58.88 58.89 58.89 58.67 58.69 58.56 58.47 58.21 56.69 55.22 53.71 53.02 52.67 52.3 52.55 52.49 52.24 50.78 50.81 50.79 50.81 50.78 51.03 51.97 52.64 52.65 52.83 52.78 52.85 54 55.6 56.69 57.44 59.48 59.49 59.33 58.19 57.2 57.12 57.29 57.17 57.17 57.14 57.17 57.13 57.28 59.24 59.37 59.73 59.38 59.34 59.32 58.12 58 57.29 56.48 56.35 56.36 56.37 56.8 56.74 56.77 56.73 56.48 56.49 56.5 56.48 56.42 56.57 56.54 56.65 56.65 56.68 56.77 56.77 56.74 56.52 55.95 56.11 56.08 56.1 56.23 56.57 56.48 56.44 56.59 56.76 56.77 56.55 56.47 56.54 56.92 56.93 57.7 57.5 57.46 57.45 57.53 57.37 57.55 58.11 58.37 58.42 58.43 58.72 59.49 59.54 59.84 60.38 60.27 60.34 60.35 60.46 60.47 60.48 60.74 60.71 60.72 60.82 60.95 61.2 61.21 60.98 61 61.24 61.17 61.23 61.24 61.22 61.21 61.59 61.46 61.43 61.49 61.52 61.63 61.66 61.52 61.55 61.62 61.56 61.51 61.41 61.45 61.54 61.52 61.66 61.77 61.88 61.97 62.03 62 62.13 62.11 62.24 62.29 62.45 62.38 62.55 62.49 62.39 62.41 62.65 62.84 63.08 63.1 63.16 63.09 63.1 63.15 63.07 63.1 63.14 63.24 63.39 63.48 63.41 63.41 63.35 63.24 63.21 63.35 63.36 63.37 63.35 63.34 63.3 63.36 63.36 63.38 63.35 63.29 63.32 63.37 63.59 63.54 63.59 63.52 63.55 63.56 63.24 63.23 63.25 63.26 63.23 63.29 63.1 63.25 63.31 63.41 63.34 63.47 63.41 63.5 63.55 63.56 63.58 63.6 63.63 63.58 63.59 63.6 63.54 63.54 63.56 63.62 63.79 63.94 64.37 64.29 64.31 64.22 64.12 63.66 63.51 63.13 63.4 -9999
-9999 -9999 -9999 -9999 -9999 -9999 -9999 -9999 -9999 -9999 -9999 -9999 60.13 60.11 60.13 60.16 60.03 60.07 60.08 60.13 60.22 60.25 60.26 60.27 60.27 60.29 60.22 60.23 60.2 60.13 60.25 60.19 60.04 60.1 60.12 59 57.06 56.91 56.91 57.03 58.44 58.52 58.55 58.59 58.66 58.7 58.73 58.82 58.78 58.7 57.23 51.88 51.47 51.28 51.26 51.21 51.16 51.11 51.04 50.98 51.56 51.05 51.02 51.01 51.88 60.39 60.66 60.97 60.93 60.92 60.97 60.95 60.92 60.94 60.38 60.13 59.96 59.75 60.59 61.62 62.6 62.67 62.59 62.77 62.83 62.8 62.78 62.77 62.8 62.75 62.83 62.66 60.21 60.82 60.5 60.49 59.71 58.96 58.79 58.65 58.84 58.97 58.89 58.87 58.83 59.02 59.29 59.24 58.92 58.91 58.92 58.8 57.08 56.92 57.05 58.36 55.72 53.63 51.08 50.85 50.92 50.89 50.83 50.85 50.88 53.05 55.37 58.06 58.74 58.73 58.8 58.84 58.66 58.72 58.71 58.74 58.81 58.78 58.89 58.48 58.47 58.4 58.43 58.64 58.34 58.36 58.32 58.32 58.3 58.29 58.28 58.31 58.29 58.26 58.25 58.31 58.42 58.45 58.4 58.39 58.44 58.43 58.44 58.44 58.66 58.63 58.63 58.54 58.56 58.77 58.85 59.33 59.32 59.55 59.55 59.48 59.42 59.52 59.5 59.4 59.23 58.88 58.81 58.89 58.94 58.99 59.06 59.14 58.69 58.57 58.6 58.69 58.77 58.85 58.89 58.75 58.68 58.86 58.83 58.78 58.82 58.85 58.79 58.66 58.57 58.55 58.55 57.59 55.56 54.37 53 52.81 52.57 52.62 52.43 52.26 50.78 50.84 50.8 50.73 50.81 50.79 51.92 52.54 52.66 52.72 52.8 52.92 53.73 55.41 56.58 57.06 59.19 59.49 59.3 58.25 57.15 57.14 57.16 57.18 57.18 57.22 57.13 57.25 57.06 59.03 59.31 59.29 60.06 60.09 60.03 60.29 59.62 58.1 58.04 57.49 56.82 56.29 56.15 56.28 56.62 56.75 56.65 56.47 56.47 56.52 56.45 56.43 56.64 56.58 56.8 56.77 56.73 56.73 56.76 56.8 56.36 55.33 56.12 56.02 56.19 56.33 56.52 56.37 56.46 56.59 56.71 56.55 56.48 56.4 56.59 56.83 56.93 57.52 57.46 57.39 57.58 57.54 57.69 57.75 58.16 58.51 58.83 58.9 59.06 59.34 59.73 60.19 60.44 60.27 60.35 60.27 60.45 60.48 60.5 60.63 60.68 60.68 60.84 61.13 61.13 60.96 60.92 61.22 61.37 61.31 61.15 61.26 61.28 61.27 61.44 61.41 61.42 61.45 61.54 61.67 61.59 61.61 61.38 61.47 61.39 61.43 61.46 61.58 61.61 61.71 61.89 62.01 62.07 62.08 62.12 62.06 62.17 62.16 62.27 62.36 62.52 62.45 62.6 62.58 62.39 62.42 62.49 62.76 63.04 63.13 63.11 63.15 63.2 63.24 63.1 63.04 63.11 63.34 63.41 63.4 63.37 63.3 63.32 63.34 63.31 63.32 63.3 63.33 63.31 63.33 63.32 63.39 63.34 63.23 63.27 63.4 63.63 63.53 63.53 63.5 63.57 63.31 63.28 63.22 63.27 63.28 63.29 63.23 63.29 63.35 63.44 63.48 63.55 63.57 63.62 63.64 63.6 63.6 63.55 63.52 63.56 63.59 63.6 63.65 63.65 63.6 63.56 63.54 63.72 64.33 64.36 64.38 64.44 64.35 63.84 63.19 63.35 63.06 63.1 64.56 63.42 -9999
-9999 -9999 -9999 -9999 -9999 -9999 -9999 -9999 -9999 -9999 -9999 -9999 60.08 60.08 60.1 60.14 60.12 59.99 60.05 60.02 60.06 60.14 60.1 60.12 60.23 60.3 60.28 60.3 60.24 60.15 60.56 60.25 60.03 60 59.91 58.72 57.17 57.07 57.07 57.18 58.53 58.51 58.57 58.59 58.61 58.54 58.53 58.66 58.95 58.61 53.17 51.6 51.42 51.4 51.35 51.3 51.24 51.13 51.06 51 51.08 51.06 51 51.26 51.83 60.09 60.17 60.05 60.59 60.5 60.93 60.93 60.97 60.93 60.92 60.92 60.93 60.63 60.17 59.85 59.84 60.69 61.5 62.18 62.53 62.76 62.75 62.69 62.66 62.72 62.74 62.73 62.76 62.76 62.77 62.82 62.44 61.81 60.68 59.99 59.24 58.85 58.82 58.82 58.85 58.91 59.16 58.98 59.06 58.9 58.85 58.68 57.28 56.84 57.28 58.09 55.39 53.4 50.86 50.94 50.88 50.87 50.87 50.81 51.26 53.6 56.37 58.77 58.81 58.73 58.82 58.93 58.86 58.82 58.81 58.86 58.88 58.76 58.9 58.79 58.41 58.52 58.5 58.58 58.75 58.32 58.32 58.29 58.28 58.26 58.29 58.32 58.3 58.31 58.3 58.33 58.37 58.4 58.42 58.42 58.43 58.44 58.46 58.46 58.58 58.55 58.59 58.54 58.43 58.69 58.53 58.58 58.6 59.6 59.68 59.65 59.83 59.82 59.58 59.49 59.18 58.81 58.89 58.94 59.02 59.05 59.08 59.07 58.61 58.56 58.64 58.69 58.75 58.87 58.87 58.72 58.8 58.89 58.86 58.89 58.84 58.85 58.81 58.82 58.54 58.73 58.15 56.2 54.93 53.05 52.88 52.69 52.67 52.45 52.44 51.25 50.8 50.82 50.8 50.79 50.8 51.83 52.64 52.74 52.93 52.96 52.86 53.45 54.96 56.41 57.15 59.22 59.54 59.41 58.34 57.05 57.1 57.15 57.08 57.2 57.22 57.19 57.2 57.48 58.89 58.79 58.9 58.74 58.52 58.34 58.97 58.65 59.36 58.34 58.02 58.26 58.04 57.16 56.6 56.34 56.32 56.64 56.57 56.52 56.5 56.46 56.54 56.57 56.81 56.77 56.76 56.81 56.87 56.76 56.9 56.77 56.33 54.92 56.26 56.04 56.32 56.53 56.5 56.41 56.48 56.72 56.71 56.5 56.43 56.47 56.84 56.92 57.63 57.47 57.39 57.42 57.67 57.72 57.72 57.85 58.03 58.48 58.89 59.22 59.43 59.66 60.12 60.36 60.19 60.24 60.28 60.43 60.39 60.45 60.54 60.59 60.66 60.61 60.94 61.01 60.93 60.87 61.11 61.22 61.35 61.35 61.1 61.17 61.25 61.28 61.2 61.27 61.44 61.44 61.58 61.68 61.59 61.46 61.29 61.4 61.39 61.47 61.56 61.56 61.74 61.75 61.86 62.01 62.14 62.33 62.19 62.22 62.13 62.21 62.3 62.37 62.47 62.65 62.65 62.62 62.68 62.44 62.49 62.67 62.92 63.09 63.19 63.23 63.28 63.31 63.14 63.08 63.16 63.4 63.36 63.31 63.3 63.37 63.32 63.31 63.32 63.32 63.32 63.41 63.31 63.3 63.32 63.28 63.28 63.37 63.43 63.52 63.64 63.56 63.46 63.47 63.44 63.24 63.23 63.27 63.23 63.23 63.32 63.39 63.49 63.59 63.59 63.59 63.55 63.66 63.67 63.67 63.68 63.67 63.67 63.7 63.73 63.66 63.67 63.72 63.68 63.91 64.42 64.42 64.36 64.21 64.28 63.54 63.31 62.93 62.97 63.17 62.95 63.02 63.12 63.44 63.81 -9999
-9999 -9999 -9999 -9999 -9999 -9999 -9999 -9999 -9999 -9999 -9999 -9999 60.05 60.02 60.03 60.04 60.07 60 60.13 60.03 60.01 60.18 59.97 59.96 60.11 60.13 60.15 60.22 60.22 60.21 60.14 60.13 60.05 59.98 59.91 58.64 57.29 57.23 57.2 57.3 57.84 58.52 58.68 58.67 58.65 58.58 58.56 58.7 58.88 58.6 52.22 51.59 51.54 51.5 51.44 51.31 51.24 51.18 51.11 51.05 51.05 51.04 51.03 51.43 52.13 57.14 58.04 59.54 59.86 60.02 60.49 60.32 60.33 60.69 60.96 60.98 60.88 60.88 60.87 60.85 60.83 60.28 60.1 60.29 60.69 61.43 61.9 62.83 62.92 62.79 62.71 62.88 62.96 62.87 62.92 62.85 62.76 62.79 62.89 62.86 61.83 61.22 60.57 60.26 59.61 58.97 59.14 59.18 59.25 58.96 59.08 58.92 57.01 56.66 57.96 57.53 55.03 53.19 51.17 50.88 50.88 50.89 50.86 50.86 52.08 54.22 57.59 58.78 58.86 58.89 58.97 58.97 58.83 58.93 59.04 59.14 59.17 59.44 59.24 59.47 58.56 58.56 58.52 58.53 58.81 58.42 58.27 58.22 58.26 58.26 58.28 58.3 58.32 58.31 58.32 58.36 58.38 58.39 58.44 58.44 58.45 58.44 58.45 58.45 58.66 58.6 58.56 58.52 58.55 58.71 58.52 58.57 58.75 59.81 59.74 59.83 60.04 59.71 59.68 59.63 58.92 58.79 58.77 58.73 58.99 59.1 59.16 58.89 58.54 58.56 58.61 58.68 58.69 58.78 58.79 58.72 58.87 58.92 58.89 58.91 58.85 58.83 58.79 58.8 58.55 58.46 56.6 55.18 53.45 52.73 52.59 52.6 52.52 52.45 51.75 50.85 50.81 50.84 50.8 50.83 51.32 52.53 52.84 52.92 52.8 52.84 53.45 54.69 56.21 57.22 59.04 59.5 59.45 58.66 57.17 57.13 57.23 57.19 57.14 57.26 57.3 57.18 57.35 57.53 57.57 57.54 57.66 57.77 57.85 57.96 58.26 58.19 58.41 58.57 58.53 58.01 58.3 58.15 57.74 56.59 56.35 56.54 56.51 56.47 56.47 56.44 56.48 56.51 56.7 56.88 56.85 56.87 56.87 56.94 56.91 56.63 56.1 55.05 56.13 56.02 56.26 56.47 56.33 56.42 56.52 56.68 56.52 56.43 56.37 56.54 56.85 56.95 57.45 57.39 57.34 57.43 57.72 57.62 57.65 57.84 58 58.31 58.82 59.53 59.77 60.01 60.34 60.27 60.18 60.24 60.28 60.34 60.35 60.59 60.79 60.7 60.51 60.87 60.99 60.95 60.87 60.97 61.03 61.14 61.27 61.09 61 61.04 61.15 61.31 61.24 61.26 61.33 61.48 61.31 61.42 61.34 61.34 61.36 61.51 61.6 61.1 60.84 60.93 61.77 61.77 61.82 61.96 62.11 62.31 62.25 62.3 62.23 62.22 62.35 62.48 62.56 62.71 62.63 62.56 62.52 62.48 62.53 62.65 62.87 63.08 63.1 63.17 63.35 63.12 63.15 63.53 63.38 63.36 63.41 63.34 63.37 63.35 63.33 63.3 63.34 63.45 63.34 63.28 63.27 63.27 63.26 63.27 63.31 63.44 63.57 63.6 63.62 63.46 63.5 63.48 63.43 63.43 63.26 63.28 63.53 63.47 63.52 63.56 63.58 63.61 63.57 63.67 63.66 63.72 63.74 63.73 63.76 63.77 63.77 63.77 63.74 63.67 63.79 64.27 64.42 64.47 64.41 63.82 63.13 62.93 62.94 62.92 62.94 62.91 62.91 62.89 63.07 63.01 63.26 63.8 63.98 -9999
-9999 -9999 -9999 -9999 -9999 -9999 -9999 -9999 -9999 -9999 -9999 -9999 59.92 59.98 60.03 60.01 60.01 60.03 60.08 60.08 60.13 60.1 59.97 60.01 60.11 60.11 60.07 60.13 60.15 60.16 60.1 59.98 59.98 59.91 60.07 58.25 57.46 57.36 57.33 57.48 57.91 58.38 58.72 58.72 58.71 58.7 58.56 58.86 58.68 58.62 52.21 51.7 51.61 51.49 51.42 51.36 51.29 51.23 51.16 51.1 51.04 51.07 51 51.23 52.17 54.77 55.39 56.37 57.72 58.43 59.81 59.8 60.04 60.13 60.19 60.22 60.35 60.88 60.85 60.88 60.83 60.82 60.84 60.85 60.59 60.78 61.31 61.1 61.12 61.58 62.43 62.93 62.94 62.93 62.97 63.01 63.01 62.8 62.89 62.83 62.8 62.93 63.03 62.77 61.94 59.2 59.35 59.79 59.36 59.11 59.02 58.59 56.55 56.46 58.26 57.22 54.87 53.46 53.01 52.75 52.14 51.55 51.09 51.09 53.06 54.89 58.55 58.74 58.91 58.83 58.92 58.91 58.84 58.8 58.98 59.1 59.29 59.07 59.05 58.98 58.92 58.55 58.7 58.62 58.61 58.79 58.34 58.26 58.17 58.19 58.27 58.29 58.33 58.36 58.38 58.4 58.4 58.37 58.4 58.45 58.48 58.43 58.5 58.68 58.59 58.6 58.57 58.6 58.55 58.55 58.54 58.58 59.36 60.05 59.87 59.97 60.08 59.85 59.84 59.52 58.88 58.84 58.78 58.74 58.73 58.72 58.64 58.74 58.54 58.52 58.59 58.66 58.74 58.78 58.77 58.69 58.98 58.92 58.93 58.94 58.9 58.79 58.76 58.65 58.71 57.3 55.45 54.18 52.93 52.75 52.53 52.61 52.56 51.95 50.82 50.8 50.81 50.79 50.8 51.24 52.42 52.69 52.7 52.89 52.89 53.07 54.4 56.05 57.24 59 59.52 59.56 58.99 57.17 57.11 57.07 57.15 57.27 57.23 57.23 57.29 57.27 57.38 57.42 57.34 57.42 57.52 57.62 57.7 57.81 57.94 58.2 58.13 58.14 57.85 58.12 58.38 58.22 57.82 56.76 56.59 56.56 56.56 56.59 56.47 56.45 56.35 57.05 56.86 56.91 56.91 57.01 56.95 57.02 56.89 56.72 56.09 55.14 56.01 56.25 56.48 56.43 56.32 56.43 56.64 56.69 56.49 56.37 56.43 56.86 56.9 57.57 57.37 57.3 57.32 57.59 57.48 57.57 57.68 57.86 58.14 59.26 58.8 59.18 59.68 60.17 60.14 60.1 60.22 60.18 60.3 60.34 60.41 60.56 60.64 60.65 60.57 60.92 60.95 60.81 60.78 60.95 60.84 61.05 61.15 61.16 61 61.08 61.19 61.29 61.34 61.17 61.2 61.22 61.16 61.28 61.24 61.42 61.59 61.27 60.83 61.09 61.04 61.22 61.82 61.8 61.82 61.91 61.84 61.83 62.35 62.26 62.28 62.23 62.21 62.31 62.46 62.55 62.79 62.75 62.59 62.54 62.57 62.61 62.81 63.05 63.07 63.22 63.35 63.6 63.42 63.35 63.3 63.59 63.34 63.34 63.36 63.29 63.4 63.31 63.35 63.38 63.26 63.3 63.3 63.28 63.38 63.56 63.51 63.6 63.61 63.34 63.3 63.44 63.43 63.45 63.48 63.53 63.52 63.64 63.58 63.6 63.63 63.64 63.58 63.57 63.7 63.75 63.78 63.8 63.82 63.8 63.81 63.77 63.69 63.78 64.02 64.16 64.22 64.16 63.2 62.96 62.94 62.87 62.86 62.77 62.85 62.81 62.84 62.91 62.82 62.91 62.97 63.04 63.43 64.05 63.87 -9999
-9999 -9999 -9999 -9999 -9999 -9999 -9999 -9999 -9999 -9999 -9999 -9999 59.82 59.91 59.84 59.94 59.98 60.03 60.05 60.04 60.03 60.05 60.09 60.11 60.03 60.11 60.1 60 59.99 59.95 59.94 59.87 59.91 59.85 59.85 57.9 57.5 57.53 57.41 57.58 57.94 58.33 58.75 58.64 58.81 58.58 58.66 58.84 58.72 58.52 52.37 51.67 51.6 51.54 51.47 51.41 51.34 51.28 51.22 51.15 51.09 51.08 51.04 51.31 51.86 53.09 54.35 55.25 55.27 55.92 57.24 59.09 59.45 59.48 59.85 59.93 60.12 60.27 60.35 60.3 60.62 60.88 60.88 60.84 60.83 60.84 60.85 60.84 60.39 60.68 60.87 61.34 62.03 62.72 62.9 63.06 63.11 63.06 63.05 62.98 63.05 62.95 62.9 62.86 62.86 62.94 62.67 62.42 61.38 60.61 59.85 58.62 56.17 56.16 58.21 56.78 54.56 53.31 53.47 53.36 53.34 53.23 53.07 53.14 53.46 55.74 58.33 58.64 58.75 58.79 58.82 58.84 58.75 58.8 58.89 59.17 59.16 59.06 59.05 59.38 59.09 58.81 58.66 58.69 58.65 58.69 58.94 59.36 58.67 58.72 58.76 58.5 58.3 58.36 58.38 58.42 58.46 58.5 58.48 58.46 58.44 58.44 58.51 58.77 58.77 58.69 58.65 58.56 58.59 58.55 58.58 58.61 59.62 60.07 60.06 60.24 60.22 60 59.82 59 58.86 58.84 58.8 58.76 58.71 58.67 58.71 58.57 58.55 58.53 58.58 58.65 58.74 58.84 58.78 58.78 58.95 58.94 58.89 58.89 58.9 58.95 58.76 58.65 58.63 56.05 54.82 52.89 52.85 52.74 52.59 52.54 52.3 50.85 50.81 50.81 50.8 50.77 51.17 52.04 52.62 52.77 52.91 53 52.96 54.19 55.77 56.76 58.95 59.47 59.5 59.21 57.22 57.14 57.1 57.15 57.13 57.22 57.2 57.25 57.27 57.34 57.12 57.13 57.43 57.52 57.6 57.69 57.81 57.86 57.96 57.98 58.25 57.95 58.2 58.01 57.8 58.07 57.7 56.76 56.77 56.62 56.59 56.57 56.62 57.82 57.3 57 56.92 57.03 57.09 57.04 57.16 57.18 57.04 56.81 56.26 55.77 56.17 56.24 56.41 56.25 56.33 56.45 56.61 56.49 56.42 56.32 56.5 56.79 56.94 57.38 57.3 57.24 57.35 57.5 57.46 57.56 57.7 57.88 59.46 59.79 59.82 59.37 59.74 60.02 60.08 60.16 60.17 60.34 60.25 60.32 60.72 60.54 60.6 60.69 60.87 60.87 60.83 60.69 60.82 60.9 61.04 61.14 60.99 60.98 60.97 61.08 61.13 61.31 61.38 61.33 61.3 61.24 61.19 61.29 61.48 61.63 60.96 61.01 61.08 61.17 61.27 61.46 61.6 61.81 61.87 61.79 61.72 61.73 62.34 62.31 62.29 62.26 62.26 62.33 62.42 62.51 62.82 62.71 62.63 62.63 62.81 62.99 63.36 63.6 63.76 63.5 63.4 63.38 63.3 63.16 63.29 63.34 63.37 63.31 63.37 63.34 63.31 63.33 63.26 63.32 63.27 63.33 63.32 63.49 63.48 63.58 63.38 63.31 63.25 63.41 63.49 63.5 63.44 63.52 63.52 63.68 63.62 63.57 63.64 63.62 63.67 63.68 63.69 63.71 63.73 63.79 63.76 63.79 63.82 63.85 63.92 64.1 63.99 63.95 64.01 63.38 62.93 62.99 62.97 62.99 62.86 62.79 62.74 62.7 62.8 62.79 62.82 62.9 62.86 62.87 62.93 63.21 63.67 63.92 63.87 -9999
-9999 -9999 -9999 -9999 -9999 -9999 -9999 -9999 -9999 -9999 -9999 -9999 59.97 59.9 59.77 59.78 59.87 59.86 59.9 59.94 60.02 60.01 60.02 60.03 60.03 60.03 60.01 59.98 59.83 59.83 59.81 59.75 59.84 59.72 59.76 57.82 57.6 57.66 57.6 57.81 58.11 58.4 58.48 58.53 58.56 58.58 58.66 58.8 58.78 58.56 51.73 51.7 51.64 51.59 51.52 51.46 51.39 51.33 51.27 51.2 51.14 51.07 51.07 51.43 51.91 53.15 53.14 53.57 53.69 54.48 55.48 58.03 58.78 59.2 59.27 59.7 59.87 60.08 59.83 60.46 60.47 60.51 60.31 60.31 60.83 60.81 60.83 60.82 60.82 60.84 60.85 60.5 60.48 60.83 61.09 61.23 61.62 62.36 62.82 62.86 62.28 62.11 62.96 62.97 63.09 63.13 62.83 62.77 62.86 62.95 62.12 61.11 55.76 55.83 58.19 57.1 54.57 53.36 53.63 53.49 53.49 53.21 53.14 53.26 54.72 57.57 57.57 58.33 58.64 58.69 58.72 58.67 58.74 58.7 58.89 59 59.15 58.79 58.85 58.97 58.8 58.92 58.73 58.83 58.73 59.63 59.36 59.36 59.38 59.66 59.53 58.82 58.53 58.52 58.99 58.65 58.53 58.54 58.56 58.5 58.47 58.5 58.52 58.78 59.04 59.06 59.17 59.05 59.72 59.37 58.75 58.53 59.87 60.19 60.1 60.28 60.15 60.09 59.88 58.89 58.91 58.85 58.89 58.91 58.87 58.85 58.88 58.56 58.54 58.5 58.71 58.85 58.88 58.77 58.81 58.76 58.81 58.8 58.96 58.92 58.88 58.78 58.68 58.58 56.81 55.21 53.38 52.67 52.65 52.75 52.58 52.39 51.67 50.85 50.8 50.8 50.81 50.91 51.87 52.64 52.77 52.85 53.02 53.1 54.19 55.5 56.51 58.73 59.44 59.49 59.27 57.44 57.14 57.19 57.11 57.18 57.18 57.17 57.26 57.23 57.32 57.34 57.11 57.35 57.44 57.44 57.43 57.52 57.63 57.72 57.85 57.82 57.82 58 58.07 57.87 57.86 58.06 57.45 56.86 56.81 56.7 56.75 56.76 56.74 56.84 57.91 57.11 56.99 57.08 57.35 57.13 57.28 57.31 57.18 57.37 55.19 56.25 56.29 56.41 56.33 56.31 56.38 56.59 56.63 56.4 56.34 56.43 56.79 56.88 57.6 57.34 57.26 57.25 57.5 57.4 57.43 57.55 57.83 58.82 59.74 59.93 60 60.04 60.04 60.03 60.02 60.15 60.09 60.18 60.21 60.42 60.47 60.57 60.57 60.67 60.88 60.84 60.78 60.82 60.89 60.65 61.03 61.06 60.94 60.91 61.04 61.13 61.26 61.28 61.37 61.47 61.37 61.38 61.47 61.53 61.6 61.55 61.31 61.34 61.36 61.46 61.61 61.72 61.82 61.82 61.68 61.66 61.73 61.74 62.09 62.36 62.28 62.27 62.27 62.34 62.46 62.65 62.73 62.87 62.9 63.04 63.29 63.55 63.68 63.51 63.36 63.33 63.39 63.21 63.23 63.29 63.4 63.32 63.34 63.28 63.32 63.34 63.32 63.33 63.32 63.3 63.24 63.33 63.32 63.26 63.3 63.31 63.26 63.37 63.37 63.39 63.47 63.45 63.45 63.5 63.49 63.61 63.64 63.66 63.69 63.7 63.71 63.72 63.74 63.7 63.67 63.84 63.68 63.88 64.01 63.93 64.01 63.77 63.09 62.92 62.88 62.95 63 62.97 62.91 62.94 62.88 62.79 62.73 62.71 62.86 62.75 62.73 62.85 62.37 62.82 62.95 63.47 63.87 63.81 63.87 -9999
-9999 -9999 -9999 -9999 -9999 -9999 -9999 -9999 -9999 -9999 -9999 -9999 59.99 59.91 59.91 59.96 59.94 59.92 59.91 59.99 59.95 60.03 59.99 59.99 59.99 59.97 59.94 59.9 59.89 59.87 59.84 59.75 59.75 59.65 59.61 57.9 57.74 57.75 57.71 57.93 58.24 58.29 58.42 58.54 58.66 58.56 58.73 58.91 58.67 57.9 52.12 51.7 51.64 51.58 51.51 51.45 51.39 51.33 51.26 51.2 51.16 51.12 51.02 51.61 51.91 52.89 53.05 53.18 53.34 53.2 54.18 56.76 58.79 58.95 59.06 59.3 59.54 59.78 59.83 59.64 60.03 60.35 60.73 60.49 60.42 60.24 60.3 60.55 60.86 60.84 60.83 60.75 60.76 60.76 60.76 60.27 60.42 60.2 60.59 61.06 61.81 61.88 61.09 62.58 62.61 62.81 62.8 62.51 62.2 62.98 62.91 62.97 55.41 55.58 58.16 56.61 53.68 53.82 53.67 53.58 53.68 53.43 53.26 53.51 55.82 58.51 57.93 57.99 58.39 58.37 58.47 58.56 58.58 58.66 58.79 58.85 58.91 58.66 58.9 58.63 58.67 58.91 58.92 58.74 58.92 59.03 59.44 59.57 59.68 59.82 59.93 59.97 60.08 60.25 59.82 59.55 59.73 59.31 58.79 58.58 58.61 58.53 58.57 58.73 58.78 58.78 58.75 59.13 59.09 59.2 59.12 58.56 60.2 60.48 60.25 60.42 60.16 60.17 59.74 58.69 58.81 58.82 58.93 58.95 58.93 58.98 58.9 58.72 58.53 58.57 58.85 58.98 58.97 58.75 58.73 58.73 58.73 58.72 58.75 58.82 58.85 58.66 58.9 57.92 55.62 54.26 52.76 52.64 52.64 52.77 52.65 51.85 50.81 50.8 50.81 50.82 50.8 51.74 52.67 52.9 52.99 52.92 52.96 53.86 55.42 56.58 58.39 59.34 59.5 59.28 57.69 57.06 57.14 57.09 57.17 57.09 57.16 57.31 57.25 57.13 57.33 57.2 57.25 57.36 57.45 57.56 57.46 57.52 57.48 57.57 57.62 57.76 57.68 58.3 57.99 57.81 57.87 57.43 56.98 56.99 56.81 56.8 56.78 56.86 56.9 56.82 57.62 57.1 57.34 57.28 57.15 57.24 57.29 57.28 57.24 56.97 54.93 56.32 56.3 56.33 56.19 56.3 56.41 56.55 56.44 56.35 56.33 56.5 56.87 57.64 57.36 57.37 57.33 57.35 57.37 57.33 57.46 57.6 57.88 59.69 59.93 59.98 60.2 60.05 60.01 59.93 60.08 60.05 60.24 60.26 60.28 60.41 60.47 60.5 60.5 60.87 60.73 60.92 60.64 60.82 60.9 60.97 61.04 60.98 60.91 60.84 61.33 61.35 61.26 61.3 61.4 61.47 61.56 61.57 61.6 61.68 61.59 61.67 61.63 61.65 61.67 61.73 61.82 61.85 61.81 61.77 61.77 61.69 61.79 61.9 61.99 62.38 62.3 62.27 62.28 62.38 62.55 62.65 62.74 63.03 63.34 63.5 63.33 63.38 63.25 63.35 63.34 63.2 63.28 63.36 63.36 63.34 63.37 63.3 63.27 63.3 63.3 63.36 63.3 63.34 63.14 63.23 63.24 63.26 63.32 63.23 63.35 63.32 63.36 63.37 63.34 63.4 63.43 63.4 63.47 63.59 63.59 63.71 63.67 63.72 63.67 63.59 63.6 63.69 63.72 63.89 64.34 64.1 63.9 63.77 63.61 63.01 62.89 62.95 62.95 62.95 62.92 62.9 62.95 62.98 62.93 62.97 62.91 62.77 62.71 62.68 62.64 62.63 62.66 62.84 62.95 62.89 63.13 63.91 63.83 63.89 63.93 -9999
-9999 -9999 -9999 -9999 -9999 -9999 -9999 -9999 -9999 -9999 -9999 -9999 59.88 59.87 59.84 59.91 59.9 59.95 59.91 59.99 59.99 60.01 59.99 59.98 60.25 59.87 59.85 59.82 59.86 59.86 59.83 59.72 59.69 59.56 59.36 57.98 57.81 57.85 57.83 58.09 58.22 58.38 58.37 58.38 58.73 58.46 58.66 58.96 58.62 58.4 52.17 51.7 51.64 51.57 51.51 51.45 51.4 51.34 51.28 51.22 51.16 51.1 51.06 51.53 52.05 53.07 53.17 53.1 53.24 53.39 53.09 55.55 58.01 58.85 59.2 59.27 59.43 59.68 59.79 59.58 59.56 59.95 60.57 60.53 60.44 60.13 60.17 60.08 59.8 60 60.28 60.84 60.78 60.77 60.82 60.74 60.76 60.79 60.47 60.34 60.29 60.1 60.47 61.28 61.93 62.3 62.39 62.61 62.61 62.69 62.79 58.7 55.18 55.92 58.09 56.89 54.61 53.96 53.61 53.61 53.35 53.51 53.36 54.65 57.16 58.42 57.34 57.52 58.43 58.36 58.38 58.43 58.52 58.6 58.73 58.91 58.89 58.83 58.69 58.67 58.65 58.7 58.75 59.05 58.89 59.02 59.01 59.22 59.53 60.02 60.05 60.14 60.4 60.84 61.38 61.63 61.72 61.73 61.56 60.64 59.77 59.58 59.31 58.84 59.05 58.69 58.38 58.52 58.59 59.05 58.96 59.09 60.53 60.46 60.4 60.49 60.32 60.38 59.06 58.72 58.79 58.85 58.93 58.93 58.99 59 58.8 58.53 58.51 58.66 58.94 58.94 58.89 58.75 58.86 58.69 58.78 58.64 58.64 58.61 58.56 58.54 58.44 56.24 54.92 53.12 52.64 52.56 52.67 52.62 52.18 50.82 50.81 50.82 50.81 50.79 51.04 52.54 52.73 53.04 53.03 52.92 53.6 55.04 56.4 57.85 59.44 59.51 59.39 57.84 57.15 57.11 57.15 57.09 57.11 57.2 57.12 57.19 57.14 56.96 57.26 57.17 57.3 57.37 57.46 57.49 57.42 57.22 57.49 57.52 57.68 57.77 57.86 57.92 57.91 57.98 57.67 57.41 57.08 57.12 56.96 56.95 56.91 56.81 57 56.99 57.19 57.24 57.38 57.34 57.23 57.25 57.3 57.36 57.3 55.68 55.96 56.26 56.36 56.33 56.21 56.38 56.54 56.57 56.35 56.28 56.4 56.86 57.6 57.65 57.45 57.46 57.42 57.43 57.32 57.39 57.45 57.69 59.63 59.77 59.93 60.06 60.12 59.99 59.87 59.9 60 60.28 60.25 60.25 60.47 60.42 60.59 60.51 60.82 60.74 60.68 60.6 60.81 60.84 60.92 60.96 60.96 60.84 60.81 61.01 61.29 61.24 61.3 61.36 61.42 61.59 61.61 61.65 61.66 61.61 61.64 61.68 61.77 61.82 61.81 61.86 61.81 61.83 61.87 61.73 61.86 61.94 62.07 62.13 62.22 62.42 62.34 62.27 62.32 62.45 62.62 62.69 62.77 63.42 63.41 63.33 63.26 63.19 63.31 63.16 63.35 63.34 63.29 63.39 63.35 63.38 63.37 63.29 63.29 63.37 63.26 63.32 63.15 63.22 63.35 63.31 63.37 63.18 63.4 63.38 63.36 63.33 63.58 63.64 64.3 63.91 63.7 63.34 63.39 63.51 63.65 63.69 63.67 63.73 63.79 63.98 64.35 64.4 64.29 64.25 64.03 63.59 63.3 63.2 63.08 62.99 62.95 62.89 62.8 62.81 62.87 62.96 62.97 62.98 62.94 62.92 62.88 62.78 62.77 62.49 62.69 62.79 62.73 62.29 62.9 63.03 63.66 64 63.9 63.81 63.89 -9999
-9999 -9999 -9999 -9999 -9999 -9999 -9999 -9999 -9999 -9999 -9999 -9999 59.9 59.82 59.8 59.84 59.84 60.13 59.86 59.83 59.86 59.9 59.9 59.84 59.8 59.76 59.74 59.73 59.73 59.68 59.69 59.69 59.6 59.53 59.29 58.06 57.95 57.96 57.94 58.16 58.4 58.39 58.33 58.31 58.22 58.55 58.73 58.76 58.69 58.44 52.56 51.7 51.65 51.59 51.53 51.47 51.41 51.35 51.29 51.24 51.18 51.12 51.05 51.37 52.08 53.02 52.97 53.02 53.38 53.29 53.42 54.16 56.8 58.75 59.15 59.24 59.36 59.38 59.43 59.48 59.5 59.51 59.46 60.1 60.23 60.23 59.91 59.78 59.79 59.79 59.69 59.65 59.79 60.16 60.52 60.82 60.78 60.76 60.78 60.74 60.68 60.74 60.27 60.43 60.3 60.37 60.44 60.73 60.44 61.18 61.14 56.05 54.98 56.41 58.14 56.9 54.29 53.83 53.44 53.41 53.55 53.32 53.5 55.42 57.56 58.33 57.37 57.42 58.49 58.44 58.38 58.37 58.39 58.52 58.73 58.95 58.91 58.8 58.76 58.68 58.52 58.63 58.83 58.99 58.91 58.93 59.12 59.06 59.14 59.49 60.28 60.5 60.71 61.14 61.6 61.74 61.82 61.9 61.89 61.84 61.85 61.84 61.82 61.77 61.33 61.31 60.08 58.94 58.63 58.83 58.56 59.07 60.72 60.57 60.56 60.71 60.41 60.42 58.87 58.65 58.75 58.83 58.91 58.89 58.94 58.94 58.72 58.53 58.49 58.48 58.65 58.61 58.73 59.05 59.15 59.12 58.97 58.61 58.77 58.55 58.49 58.78 57.3 55.28 53.7 52.89 52.67 52.59 52.57 52.39 50.99 50.83 50.82 50.84 50.84 50.81 51.76 52.6 52.59 52.9 52.95 53.32 54.53 56.14 57.57 59.35 59.48 59.48 58.1 57.17 57.13 57.15 57.23 57.09 57.03 57.15 57.18 57.13 57.08 56.95 57.32 57.17 57.38 57.39 57.41 57.4 57.42 57.13 57.41 57.4 57.62 57.69 57.82 58.23 58.07 57.95 57.79 57.48 57.41 57.09 57.08 56.99 56.86 56.87 56.91 57.03 57.05 57.27 57.43 57.31 57.2 57.35 57.47 57.38 57.2 55.01 56.21 56.24 56.19 56.1 56.23 56.34 56.51 56.41 56.31 56.34 56.42 56.72 57.66 57.64 57.59 57.54 57.61 57.37 57.44 57.45 57.66 58.7 59.73 59.87 59.99 60.14 59.96 59.9 59.83 59.9 59.85 60.16 60.16 60.35 60.39 60.5 60.54 60.56 60.82 60.73 60.65 60.57 60.95 60.86 60.9 60.68 60.95 60.78 60.95 61.24 61.28 61.28 61.34 61.42 61.58 61.61 61.65 61.67 61.7 61.56 61.63 61.67 61.73 61.79 61.85 61.82 61.89 61.88 61.9 61.96 62.02 62.12 62.21 62.32 62.36 62.38 62.37 62.39 62.51 62.61 62.83 63.29 63.27 63.33 63.29 63.25 63.2 63.07 63.31 63.37 63.32 63.38 63.36 63.39 63.36 63.32 63.29 63.37 63.32 63.31 63.14 63.36 63.37 63.34 63.33 63.38 63.78 63.43 63.4 63.4 63.58 63.7 63.6 63.83 63.82 63.68 63.47 63.39 63.4 63.54 63.6 63.68 63.86 64.39 64.47 64.3 64.42 63.94 63.33 63.35 63.33 63.29 63.25 63.18 63.14 62.95 62.91 62.85 62.84 62.77 62.68 62.64 63.02 63.01 62.91 62.9 62.82 62.84 62.45 62.21 62.73 62.75 62.77 62.9 62.84 62.98 64.19 63.89 63.9 63.86 63.93 -9999
-9999 -9999 -9999 -9999 -9999 -9999 -9999 -9999 -9999 -9999 -9999 -9999 59.78 59.79 59.76 59.8 59.98 59.79 59.82 59.82 59.75 59.75 59.76 59.77 59.76 59.72 59.68 59.62 59.61 59.61 59.61 59.61 59.57 59.37 59.04 58.14 58.07 58.05 58.17 58.31 58.45 58.51 58.62 58.72 58.69 58.56 58.63 58.75 58.68 58.55 51.76 51.66 51.61 51.56 51.51 51.47 51.42 51.38 51.35 51.29 51.23 51.17 51.21 51.35 52.15 53.08 53.07 53.14 53.29 53.23 53.31 53.05 55.45 57.87 58.65 59.24 59.35 59.35 59.41 59.39 59.43 59.39 59.41 59.43 59.6 59.91 59.77 59.83 59.8 59.48 59.68 59.76 59.7 59.75 59.79 59.9 59.91 60.23 60.79 60.72 60.74 60.75 60.69 60.76 60.8 60.49 60.13 59.82 59.29 59.08 59.06 54.97 54.85 56.77 57.97 55.95 54.38 53.58 53.59 53.34 53.19 53.4 54.24 56.49 58.4 57.52 57.39 57.88 58.3 58.3 58.38 58.41 58.49 58.46 58.62 58.85 59 58.98 58.86 58.61 58.67 58.82 58.97 59.21 59.48 58.95 59.09 59.27 59.33 59.33 59.58 60.77 61.1 61.55 61.72 61.81 61.92 61.98 61.97 61.98 62.01 61.92 61.92 61.95 61.96 61.89 61.81 61.6 61.7 61.67 61.53 60.7 60.73 60.7 60.85 60.72 60.5 60.38 58.69 58.74 58.81 58.79 58.84 58.9 59.02 58.86 58.68 58.64 58.47 58.46 58.49 58.62 58.88 58.82 58.72 58.69 58.72 58.61 58.96 58.95 58.81 58.65 56.07 54.61 52.92 52.75 52.63 52.58 52.6 51.52 50.82 50.85 50.83 50.83 50.84 51.6 52.67 52.65 52.79 52.89 53.24 54.2 55.76 56.68 58.94 59.52 59.5 58.54 57.19 57.11 57.13 57.12 57.24 57.11 57.17 57.14 57.16 57.38 57.08 57.03 57.22 57.21 57.38 57.41 57.45 57.29 57.36 57.38 57.43 57.32 57.56 57.65 57.75 58.19 58.12 58.16 57.93 57.5 57.39 57.26 57.2 57.13 56.73 55.44 54.51 56.89 56.97 57.11 57.33 57.31 57.32 57.37 57.42 57.37 56.53 55.92 56.23 56.22 56.13 56.16 56.24 56.48 56.48 56.31 56.23 56.36 56.62 57.66 57.64 57.6 57.61 57.7 57.61 57.49 57.58 57.61 57.92 59.63 59.81 59.95 60.09 59.93 59.86 59.78 59.85 59.83 59.94 60.06 60.2 60.31 60.45 60.61 60.49 60.66 60.71 60.6 60.53 60.76 60.85 60.87 60.9 60.85 60.77 60.74 61.18 61.29 61.2 61.31 61.4 61.47 61.74 61.65 61.7 61.71 61.64 61.48 61.61 61.75 61.74 61.83 61.92 61.91 61.92 62.02 62.06 62.1 62.22 62.3 62.37 62.41 62.49 62.59 62.5 62.54 63.05 63.25 63.22 63.43 63.37 63.35 63.24 63.11 63.3 63.27 63.33 63.35 63.33 63.32 63.37 63.3 63.31 63.36 63.36 63.37 63.35 63.36 63.33 63.31 63.38 63.49 63.48 63.53 63.43 63.43 63.38 63.74 63.65 63.78 63.69 63.69 63.73 63.75 63.49 63.42 63.36 63.54 63.67 63.73 63.46 64.19 63.81 63.47 63.43 63.4 63.39 63.39 63.19 63.2 63.13 63.1 63.07 62.96 62.94 62.85 62.82 62.69 62.59 62.78 62.91 62.93 62.91 62.88 62.85 62.87 62.91 62.79 62.91 62.87 62.36 62.86 63.18 63.73 63.88 63.9 63.93 63.96 64.14 -9999
-9999 -9999 -9999 -9999 -9999 -9999 -9999 -9999 -9999 -9999 -9999 -9999 59.48 59.51 59.58 59.62 59.76 59.72 59.72 59.72 59.67 59.69 59.68 59.69 59.72 59.67 59.56 59.6 59.51 59.57 59.56 59.5 59.54 59.45 58.8 58.21 58.17 58.14 58.33 58.51 58.63 58.65 58.67 58.7 58.65 58.56 58.64 58.83 58.71 58.8 52.08 51.68 51.63 51.58 51.53 51.49 51.44 51.39 51.34 51.29 51.25 51.19 51.08 51.57 52.28 53.02 53.05 53.2 53.2 53.26 53.32 53.31 54.15 56.73 58.56 59.27 59.3 59.33 59.37 59.38 59.41 59.4 59.39 59.35 59.53 59.55 59.62 59.61 59.58 59.02 58.99 59.1 59.04 59.16 59.25 59.42 59.54 59.71 59.84 59.77 60 60.44 60.75 60.76 60.72 60.71 60.71 60.71 60.69 60.11 59.93 54.84 54.73 59.29 58.71 56.25 53.88 53.4 53.43 53.35 53.38 53.76 55.23 57.25 57.85 57.55 57.21 57.3 58.06 58.56 58.86 59.65 59.47 59.22 58.86 59.02 59.11 59.29 59.05 58.93 58.83 58.91 59.55 59.89 59.83 60.3 59.31 59.34 59.54 59.54 59.56 59.75 61.15 61.56 61.74 61.91 61.97 62 62 62.01 61.99 61.98 61.98 61.96 61.99 61.97 61.9 61.9 61.88 61.8 61.62 60.7 60.72 60.84 60.83 60.65 60.61 59.36 58.8 58.83 58.86 58.88 58.9 58.92 58.92 58.82 58.63 58.63 58.58 58.66 58.69 58.58 58.66 58.72 58.75 58.78 58.8 58.68 58.66 58.59 58.6 56.88 55.25 53.43 52.68 52.6 52.8 52.57 52.3 50.86 50.8 50.83 50.83 50.84 50.92 52.53 52.64 52.82 52.89 53.13 54.02 55.57 56.36 58.7 59.55 59.58 59.2 57.21 57.2 57.16 57.12 57.18 57.22 57.15 57.2 57.15 57.17 57.16 57.05 57.12 57.16 57.25 57.47 57.51 57.37 57.27 57.25 57.26 57.36 57.37 57.44 57.7 57.75 58.2 58.18 58.01 57.83 57.64 57.52 57.39 57.43 56.96 55.95 54.61 54.2 54.33 54.35 57 57.08 57.29 57.46 57.37 57.42 57.26 55.9 56.22 56.26 56.2 56.13 56.18 56.31 56.44 56.35 56.22 56.34 56.4 56.65 57.7 57.69 57.67 57.81 57.76 57.77 57.88 57.73 57.87 59.52 59.79 59.97 59.92 60.11 59.9 59.72 59.72 59.75 59.93 59.97 60.06 60.15 60.29 60.41 60.47 60.61 60.8 60.62 60.5 60.63 60.78 60.89 60.81 60.72 60.71 60.66 60.87 61.21 61.28 61.27 61.34 61.43 61.58 61.64 61.69 61.68 61.77 61.58 61.62 61.75 61.81 61.88 61.93 61.99 62.02 62.1 62.15 62.2 62.29 62.39 62.42 62.55 62.77 62.95 63.34 63.44 63.32 63.29 63.48 63.41 63.34 63.34 63.18 63.36 63.29 63.35 63.33 63.31 63.36 63.38 63.42 63.33 63.32 63.36 63.37 63.29 63.36 63.33 63.34 63.35 63.4 63.38 63.94 64.1 64.15 63.46 64.18 63.81 63.87 63.76 63.63 63.65 63.68 63.74 63.67 63.42 63.42 63.34 63.61 63.66 63.51 63.57 63.63 63.65 63.54 63.65 63.7 63.23 63.17 63.21 63.14 63.08 63.05 63 62.92 62.89 62.85 62.78 62.75 62.81 62.87 62.92 63 62.95 62.95 62.94 62.99 62.98 62.96 62.94 62.9 62.84 62.83 63.65 63.93 64.05 63.95 63.98 63.98 64.38 -9999
-9999 -9999 -9999 -9999 -9999 -9999 -9999 -9999 -9999 -9999 -9999 -9999 59.44 59.48 59.51 59.51 59.63 59.67 59.64 59.62 59.7 59.58 59.6 59.62 59.62 59.65 59.54 59.55 59.44 59.43 59.39 59.32 59.44 59.4 58.51 58.1 58.28 58.23 58.31 58.8 58.71 58.71 58.71 58.72 58.63 58.56 58.81 59.03 58.66 58.54 56.15 51.7 51.65 51.6 51.55 51.5 51.46 51.41 51.36 51.29 51.23 51.16 51.14 51.58 52.26 53.16 52.93 53.07 53.34 53.32 53.23 53.31 53.16 55.44 57.89 58.65 59.3 59.32 59.35 59.37 59.38 59.36 59.39 59.37 59.4 59.48 59.41 59.38 59.29 59.2 58.7 59 58.85 58.84 58.85 58.92 58.98 59.1 59.39 59.52 59.4 59.5 59.45 59.81 60.17 60.75 60.72 60.7 60.7 60.71 60.73 58.44 57.73 60.12 59.6 58.04 53.48 53.26 53.24 53.12 53.34 54.74 57.13 58.09 57.88 57.15 57.07 57.2 58.37 58.93 60.77 62.1 61.5 60.76 60.21 59.9 59.32 59.21 59.17 59.58 59.04 59.51 60.22 60.42 60.21 60.61 60.83 59.94 59.56 59.69 59.77 59.76 59.86 61.26 61.7 61.89 61.97 62 62.05 62.05 62.01 62.05 62.03 62.05 62.03 61.95 61.95 61.96 61.93 61.86 61.57 60.75 60.74 60.9 60.87 60.81 60.79 59.18 58.85 58.83 58.82 58.89 58.96 58.89 58.9 58.86 58.65 58.59 58.62 58.68 58.68 58.61 58.63 58.69 58.77 58.74 58.62 58.54 58.53 58.59 58.02 55.6 54.24 52.92 52.85 52.77 52.56 52.58 51.16 50.83 50.76 50.84 50.83 51.07 52.07 52.63 52.67 52.96 53.01 53.77 55.24 56.49 58.35 59.48 59.69 59.5 57.66 57.09 57.21 57.18 57.23 57.19 57.3 57.26 57.25 57.15 57.34 57.19 57.03 57.16 57.11 57.24 57.37 57.45 57.37 57.36 57.23 57.29 57.4 57.34 57.13 57.68 57.79 58.07 58.1 58.18 57.96 57.75 57.56 57.51 57.55 57.12 56.14 56.16 55.53 54.66 54.07 54.28 54.34 57.18 57.34 57.43 57.46 57.19 56.17 56.21 56.17 56.03 56.13 56.21 56.39 56.4 56.24 56.18 56.27 56.56 56.98 57.13 57.74 57.79 57.83 57.84 57.78 58.27 57.99 57.92 59.25 59.76 59.96 59.97 60.05 59.7 59.63 59.74 59.69 59.87 59.93 60.13 60.28 60.1 60.26 60.37 60.5 60.65 60.46 60.42 60.72 60.82 60.79 60.87 60.78 60.65 60.76 61.33 61.31 61.26 61.31 61.4 61.55 61.6 61.63 61.67 61.73 61.62 61.6 61.74 61.82 61.9 61.95 62.03 62.15 62.19 62.23 62.28 62.38 62.44 62.55 62.84 63.08 63.34 63.37 63.32 63.34 63.41 63.4 63.33 63.31 63.26 63.4 63.32 63.4 63.36 63.38 63.36 63.37 63.4 63.4 63.3 63.36 63.31 63.34 63.27 63.37 63.35 63.4 63.34 63.4 64.15 64.06 64.16 64.04 63.94 63.98 64.01 63.9 63.85 63.73 63.68 63.66 63.78 63.74 63.6 63.35 63.42 63.35 63.53 63.63 63.64 63.6 63.66 63.72 63.7 62.9 63.66 63.44 63.09 63.15 63.08 63.05 63.03 62.96 62.98 62.89 62.79 62.75 62.82 62.94 62.93 62.95 62.88 62.93 62.96 62.96 62.99 63.05 62.97 62.94 62.33 62.79 62.8 63.83 64.06 63.91 63.99 63.91 63.98 64.17 -9999
-9999 -9999 -9999 -9999 -9999 -9999 -9999 -9999 -9999 -9999 -9999 -9999 59.5 59.42 59.29 59.4 59.51 59.56 59.56 59.56 59.71 59.75 59.5 59.53 59.52 59.54 59.53 59.46 59.27 59.38 59.35 59.36 59.4 59.37 58.48 58.2 58.35 58.29 58.45 58.78 58.78 58.79 58.77 58.73 58.61 58.64 58.81 58.7 58.76 58.72 57.61 51.8 51.66 51.62 51.57 51.52 51.46 51.39 51.27 51.23 51.19 51.13 51.09 51.52 52.11 53.33 53.2 53.06 53.28 53.36 53.25 53.22 53.29 54.32 56.75 58.61 59.33 59.32 59.31 59.4 59.34 59.31 59.34 59.32 59.32 59.54 59.25 59.24 59.2 59.25 58.63 58.63 58.76 58.77 58.8 58.8 59.01 58.89 58.98 58.87 58.98 59.17 59.35 59.51 59.62 59.94 60.09 60.15 60.44 60.65 60.72 59.89 60.73 60.69 60.69 60.69 53.38 53.14 53.23 53.17 53.46 57.29 58.73 59.71 59.77 59.67 58.41 58.71 59.61 59.03 63.23 63.08 62.89 62.83 62.65 61.99 61.19 60.14 59.44 59.55 59.57 60.11 60.8 60.97 60.85 60.91 61.27 61.44 60.54 59.75 59.93 59.98 59.98 59.97 60.99 61.81 61.97 61.97 62.02 62.07 62.06 62.08 62.08 62.09 62.09 62.03 61.99 61.98 61.95 61.79 61.2 60.83 60.85 60.85 61.22 60.91 60.66 58.86 58.91 58.82 58.85 58.88 58.91 58.93 58.89 58.72 58.67 58.55 58.62 58.65 58.68 58.56 58.52 58.65 58.77 58.69 58.62 58.49 58.48 58.49 56.71 55.18 53.28 52.81 52.66 52.8 52.45 52.24 50.89 50.85 50.85 50.8 50.92 51.36 52.61 52.56 52.73 53 53.5 54.88 56.27 57.82 59.43 59.61 59.46 58.31 57.12 57.21 57.31 57.17 57.27 57.19 57.25 57.19 57.2 57.22 57.19 57.1 56.99 56.99 57.07 57.3 57.33 57.41 57.35 57.29 57.25 57.37 57.39 57.32 57.23 57.74 57.96 58.11 58.18 58.13 58.22 57.8 57.73 57.74 57.46 57.76 57.76 57.81 57.05 56.29 55.55 54.79 57.19 57.15 57.24 57.29 57.43 57.31 56.2 56.18 56.09 56.05 56.12 56.23 56.42 56.29 56.17 56.32 56.28 56.99 57.04 57.19 57.18 57.6 57.79 57.7 57.74 59.21 59.36 59.43 59.25 59.13 59.69 59.56 59.6 59.57 59.6 59.63 59.77 59.82 59.94 60.15 60.35 60.43 60.26 60.24 60.37 60.42 60.38 60.57 60.91 60.84 60.79 60.69 60.64 60.64 61.02 61.18 61.28 61.34 61.37 61.44 61.6 61.62 61.65 61.7 61.63 61.63 61.75 61.83 61.8 61.86 61.99 62.05 62.14 62.29 62.34 62.41 62.63 62.9 63.16 63.48 63.54 63.35 63.4 63.42 63.46 63.43 63.29 63.22 63.38 63.31 63.41 63.33 63.4 63.38 63.36 63.37 63.41 63.37 63.36 63.34 63.28 63.62 63.73 63.62 63.6 63.57 63.46 64.19 64.09 64.05 64.09 64.05 64.13 64.09 63.9 63.91 63.91 63.84 63.76 63.76 63.71 63.75 63.7 63.53 63.37 63.37 63.37 63.63 63.68 63.65 63.72 63.7 63.72 63.69 63.38 61.87 61.07 61.46 63.11 63.06 63.07 63.01 62.95 62.84 62.78 62.8 62.87 62.9 61.9 61.93 62.66 62.85 62.92 63.01 63.02 63.02 63.02 62.96 62.94 62.77 62.67 62.97 64 63.92 63.83 63.99 64.09 63.95 64.29 -9999
-9999 -9999 -9999 -9999 -9999 -9999 -9999 -9999 -9999 -9999 -9999 -9999 59.9 59.39 59.31 59.36 59.39 59.43 59.46 59.49 59.45 59.47 59.39 59.39 59.35 59.31 59.42 59.39 59.33 59.28 59.27 59.29 59.28 59.44 58.54 58.29 58.38 58.34 58.47 58.61 58.97 58.92 58.86 58.79 58.53 58.58 58.59 58.61 58.69 58.54 58.28 52.35 51.68 51.62 51.56 51.51 51.45 51.4 51.33 51.27 51.21 51.14 51.03 51.25 52.2 53.31 53.33 53.03 53.21 53.24 53.21 53.19 53.23 53.25 55.6 57.85 58.93 59.29 59.3 59.36 59.37 59.34 59.37 59.33 59.29 59.23 59.24 59.19 59.1 59.11 58.76 58.68 58.59 58.7 58.78 58.76 58.87 58.8 58.83 58.72 58.77 58.86 58.91 58.97 59.07 59.35 59.24 59.9 60.02 59.89 59.18 55.01 60.71 60.76 60.73 57.94 53.32 53.01 53 53.17 59.29 59.61 59.94 59.97 60 60.07 59.96 59.97 59.99 59.95 60.32 63.03 63.11 63.03 62.88 62.82 62.86 62.95 62.2 61.6 60.77 60.41 60.8 61.11 61.36 61.42 61.45 61.55 61.77 61.36 59.96 60.09 60.18 60.32 60.32 60.79 61.79 61.98 62.01 62.06 62.17 62.13 62.11 62.14 62.1 62.09 62.05 62.03 61.97 61.84 60.99 60.9 60.91 60.88 61.27 61.02 60.81 58.76 58.9 58.85 58.88 58.91 58.94 58.97 58.86 58.75 58.72 58.69 58.72 58.73 58.69 58.6 58.5 58.55 58.93 58.71 58.59 58.49 58.53 58.07 55.6 54.22 53.02 52.78 52.71 52.46 52.39 51.32 50.82 50.83 50.84 50.84 51.04 52.36 52.62 52.56 52.8 53.03 54.34 56.08 56.94 59.44 59.62 59.59 58.93 57.79 57.13 57.17 57.22 57.24 57.2 57.3 57.22 57.2 57.18 57.21 57.18 56.99 57.02 56.88 57.26 57.36 57.43 57.37 57.35 57.21 57.29 57.42 57.38 57.37 57.31 57.7 58.07 58.09 58.32 58.26 58.1 57.84 57.79 57.94 57.7 57.78 57.78 57.81 57.77 57.79 57.24 56.44 56.86 57.07 57.01 57.13 57.21 57.35 56.15 56.11 55.99 56.08 56.13 56.25 56.32 56.17 56.13 56.23 56.7 57.12 57.21 57.19 57.19 57.26 57.33 57.64 59.08 59.32 59.39 59.49 59.6 59.27 59.24 59.42 59.55 59.5 59.56 59.66 59.72 59.79 59.96 60.2 60.37 60.49 60.43 60.36 60.31 60.32 60.48 60.68 60.8 60.75 60.67 60.52 60.57 60.78 61.14 61.24 61.32 61.44 61.45 61.67 61.65 61.65 61.67 61.7 61.56 61.67 61.8 61.88 61.83 61.91 62.08 62.19 62.31 62.34 62.64 62.93 63.27 63.52 63.55 63.42 63.43 63.4 63.41 63.39 63.31 63.26 63.39 63.36 63.34 63.31 63.36 63.37 63.35 63.38 63.43 63.34 63.26 63.3 63.42 63.47 63.76 63.74 63.72 63.84 63.63 64.17 64.17 64.15 64.08 64.4 64.25 64.26 64.11 63.97 63.99 64.03 64 63.91 63.89 63.83 63.8 63.75 63.69 63.52 63.33 63.3 63.43 63.68 63.76 63.72 63.74 63.73 63.75 63.71 63.67 62.58 61.59 62.75 63.1 63.13 63.05 63.1 62.94 62.84 62.75 62.84 62.9 62.65 61.94 61.92 62.92 62.86 62.96 62.98 63.04 63.03 63 62.97 62.41 62.72 62.71 63.92 63.93 63.87 63.88 63.88 64.2 64.1 64.17 -9999
-9999 -9999 -9999 -9999 -9999 -9999 -9999 -9999 -9999 -9999 -9999 -9999 59.81 59.26 59.26 59.26 59.32 59.46 59.43 59.46 59.35 59.34 59.25 59.26 59.25 59.18 59.14 59.13 59.24 59.3 59.23 59.33 59.22 59.36 58.56 58.36 58.39 58.34 58.4 58.53 58.9 58.91 58.8 58.66 58.5 58.54 58.56 58.6 58.61 58.5 58.37 51.87 51.72 51.66 51.6 51.54 51.47 51.41 51.35 51.28 51.22 51.15 51.08 51.32 52.12 53.17 53.3 53.06 53.21 53.25 53.14 53.18 53.17 53.37 54.47 56.73 58.74 59.29 59.24 59.31 59.32 59.34 59.37 59.39 59.33 59.26 59.28 59.17 59.08 59.02 58.94 58.53 58.69 58.61 58.63 58.6 58.55 58.64 58.65 58.61 58.69 58.66 58.77 58.82 58.9 58.63 58.69 58.79 59.18 58.88 55.89 55.11 59.18 59.41 59.9 53.54 53.22 53 52.95 53.13 60.74 60.67 60.76 60.19 60.13 60.22 60.11 60.07 59.95 59.99 60.58 62.78 62.94 63.18 63.14 63.12 62.89 62.84 62.86 62.81 63.09 62.94 62.97 62.1 61.55 61.64 61.81 62.01 62.13 62.19 62.14 60.74 60.17 60.38 60.52 60.49 60.58 61.68 61.98 62.06 62.11 62.11 62.11 62.16 62.13 62.12 62.09 62.06 62 61.87 61.57 61.09 61.03 61.12 61.33 61.1 60.58 58.9 58.84 58.89 58.92 58.95 58.98 58.92 58.83 58.77 58.78 58.93 58.89 58.83 58.74 58.65 58.34 58.4 58.88 58.81 58.66 58.57 58.41 56.67 55.12 53.24 52.75 52.61 52.52 52.44 51.96 50.83 50.84 50.82 50.83 51.09 52 52.75 52.56 52.71 52.81 53.84 55.47 56.44 58.79 59.64 59.64 59.28 57.99 57.22 57.28 57.26 57.24 57.25 57.25 57.27 57.23 57.23 57.2 57.15 57.09 57.18 57.08 56.82 57.18 57.25 57.31 57.31 57.32 57.22 57.28 57.37 57.37 57.36 57.43 57.71 58.1 57.94 58.11 58.22 58.06 57.99 58.03 57.83 57.76 57.76 57.73 57.77 57.76 57.8 57.78 57.69 57.32 56.96 57.27 57.62 57.5 57.44 56.18 56.09 56.03 56.11 56.17 56.33 56.21 56.12 56.23 56.27 56.9 57.18 57.27 57.38 57.32 57.28 57.33 57.66 59 59.34 59.47 59.54 59.37 59.32 59.43 59.46 59.36 59.48 59.46 59.69 59.62 59.78 60.02 60.14 60.2 60.42 60.38 60.59 60.34 60.2 60.54 60.71 60.68 60.67 60.65 60.57 60.64 61.08 61.14 61.25 61.36 61.43 61.52 61.51 61.53 61.66 61.76 61.64 61.57 61.77 61.86 61.95 62.04 62.15 62.2 62.28 62.63 62.97 63.25 63.67 63.4 63.4 63.43 63.4 63.38 63.37 63.32 63.36 63.3 63.36 63.36 63.4 63.36 63.32 63.35 63.38 63.37 63.3 63.3 63.23 63.41 63.3 63.42 63.73 63.72 63.75 63.51 64.19 64.15 64.24 64.18 64.28 64.28 64.22 64.23 64.15 64.14 64.04 63.98 63.97 63.95 63.95 63.85 63.75 63.73 63.72 63.64 63.52 63.27 63.32 63.45 63.59 63.75 63.71 63.73 63.7 63.76 63.72 63.67 63.76 63.64 62.96 63.14 63.11 63 63 62.86 62.84 62.78 62.81 62.82 62.84 62.93 62.73 62.97 62.91 62.98 63 62.99 63.06 63.03 63.02 62.76 62.66 62.83 64.02 63.95 63.84 63.91 64.02 64.18 64.41 64.32 -9999
-9999 -9999 -9999 -9999 -9999 -9999 -9999 -9999 -9999 -9999 -9999 -9999 59.97 59.23 59.09 59.19 59.21 59.29 59.24 59.31 59.33 59.25 59.1 59.14 59.15 59.12 59.11 59.07 59.05 59.01 59.03 59.17 59.21 59.24 58.57 58.42 58.37 58.35 58.44 58.43 58.41 58.46 58.47 58.6 58.47 58.46 58.53 58.58 58.56 58.52 58.35 52.12 51.62 51.56 51.5 51.44 51.38 51.34 51.29 51.27 51.23 51.17 51.1 51.19 51.83 53.13 53.24 53.16 53.22 53.35 53.22 53.22 53.23 53.28 53.21 55.58 57.78 59 59.21 59.29 59.31 59.35 59.41 59.39 59.38 59.34 59.32 59.2 59.04 58.96 58.82 58.59 58.43 58.4 58.37 58.38 58.41 58.41 58.45 58.47 58.53 58.62 58.64 58.68 58.8 58.52 58.67 58.7 58.92 58.32 55.39 55.23 57.44 58.64 56.18 53.68 53.18 53.13 53.28 53.3 60.71 60.75 60.76 60.77 60.77 60.74 60.57 60.13 60.27 60.13 59.9 60.73 61.74 62.41 62.71 63.01 63.09 62.82 62.73 62.79 62.85 62.91 62.89 63.06 63.15 63.26 62.87 62.58 62.26 62.4 62.43 62.62 61.79 60.63 60.5 60.76 60.74 60.78 61.29 61.99 62.06 62.07 62.09 62.09 62.13 62.11 62.16 62.11 61.97 62 61.82 61.65 61.51 61.57 61.19 61.17 60.86 59.07 58.96 58.9 58.97 59 58.96 58.92 58.81 58.77 58.81 58.89 58.88 58.78 58.63 58.47 58.25 58.61 58.74 58.69 58.58 58.57 58.05 55.45 54.13 52.93 52.66 52.68 52.44 51.96 50.92 50.82 50.84 50.82 50.83 51.64 52.61 52.61 52.57 52.85 53.23 54.79 56.67 58.06 59.5 59.64 59.57 58.53 57.2 57.18 57.22 57.23 57.28 57.39 57.42 57.35 57.37 57.24 57.25 57.13 57.19 57.64 57.13 56.88 57.23 57.3 57.51 57.49 57.28 57.26 57.37 57.34 57.38 57.36 57.5 57.72 57.87 57.98 58.25 58.27 58.03 58.02 58.03 57.92 57.86 57.9 57.9 57.63 57.29 57.83 57.79 57.56 57.16 56.8 57.29 57.68 57.58 56.51 56.13 56.04 56.07 56.14 56.24 56.35 56.15 56.08 56.19 56.72 56.97 57.24 57.63 57.37 57.37 57.4 57.44 57.88 58.31 58.88 59.18 59.41 59.39 59.35 59.36 59.29 59.34 59.37 59.56 59.56 59.64 59.79 59.82 60.21 60.35 60.32 60.37 60.4 60.23 60.48 60.44 60.57 60.58 60.56 60.5 60.45 60.85 61.07 61.18 61.31 61.44 61.52 61.57 61.54 61.55 61.57 61.61 61.53 61.63 61.77 61.98 62.27 62.33 62.34 62.62 62.93 63.18 63.54 63.47 63.42 63.4 63.47 63.35 63.37 63.27 63.38 63.29 63.35 63.27 63.28 63.26 63.33 63.32 63.39 63.26 63.21 63.11 63.16 63.25 62.98 62.98 63.18 63.36 63.51 63.84 64.28 64.28 64.25 64.24 64.38 64.16 64.18 64.2 64.26 64.25 64.16 64.16 64.19 64.07 64.02 63.94 63.88 63.82 63.76 63.7 63.76 63.65 63.55 63.32 63.3 63.57 63.54 63.69 63.76 63.73 63.76 63.75 63.7 63.71 63.63 63.03 63.17 63.1 63.04 63.05 62.88 62.84 62.75 62.89 62.79 62.83 62.86 62.88 62.94 62.96 62.96 62.99 62.99 62.99 62.95 62.93 62.49 62.7 62.59 63.75 63.92 63.84 63.97 63.91 64.76 64.55 64.98 64.05 -9999
-9999 -9999 -9999 -9999 -9999 -9999 -9999 -9999 -9999 -9999 -9999 -9999 59.32 59.11 59.11 59.1 59.14 59.29 59.4 59.45 59.37 59.38 59.34 59.28 59.29 59.07 59.02 58.99 59.02 59.01 59.04 59.29 59.17 59.03 58.59 58.49 58.4 58.45 58.55 58.64 58.64 58.6 58.61 58.65 58.46 58.51 58.49 58.55 58.58 58.53 58.36 58.32 51.73 51.65 51.59 51.53 51.47 51.41 51.35 51.29 51.23 51.14 51.11 51.28 51.88 53.04 53.09 53.15 53.05 53.28 53.24 53.2 53.24 53.25 53.46 54.38 56.72 58.62 59.17 59.22 59.27 59.29 59.33 59.36 59.32 59.31 59.27 59.31 59.06 58.96 58.85 58.85 58.57 58.4 58.38 58.4 58.49 58.4 58.46 58.45 58.43 58.45 58.48 58.57 58.68 58.51 58.6 58.69 58.82 57.97 55.43 55.4 58.12 58.5 55.24 53.46 53.24 53.3 53.29 55.61 59.53 60.06 60.43 60.75 60.77 60.72 60.76 60.79 60.75 60.75 60.26 60.5 60.74 60.83 61.33 61.83 62.26 62.9 62.76 62.82 62.84 62.79 62.74 62.86 62.89 62.96 63.03 63.07 63.13 62.99 62.77 62.61 62.84 62.77 61.82 60.93 60.74 60.94 61.05 61.05 61.88 62.08 62.07 62.09 62.12 62.12 62.16 62.21 62.22 62.19 62.1 62 61.77 61.69 61.38 61.32 61.2 59.1 58.91 59.14 59.01 59.02 58.99 58.91 58.8 58.8 58.85 58.85 58.82 58.71 58.52 58.3 58.24 58.54 58.69 58.63 58.58 58.46 56.84 55.05 53.24 52.86 52.83 52.79 52.5 51.72 50.82 50.84 50.83 50.83 50.89 52.04 52.54 52.53 52.68 52.87 54.2 56 56.99 59.48 59.6 59.71 59.18 57.66 57.16 57.29 57.23 57.3 57.26 57.31 57.26 57.32 57.29 57.32 57.26 57.15 57.15 57.46 57.38 57 57.21 57.33 57.57 57.56 57.71 57.5 57.27 57.35 57.39 57.41 57.55 57.87 57.97 58.38 58.34 58.27 58.16 58.11 58.18 57.93 58.02 58.02 58.08 58.04 57.89 57.71 57.65 57.38 57.01 56.75 57.68 57.68 57.42 56.4 56.31 56.16 56.14 56.17 56.35 56.19 56.09 56.17 56.29 56.56 57.07 57.36 57.35 57.41 57.41 57.53 57.89 58.3 58.67 58.99 59.2 59.26 59.43 59.38 59.28 59.2 59.33 59.29 59.46 59.5 59.71 59.88 59.95 60.1 60.32 60.38 60.42 60.19 60.33 60.46 60.53 60.52 60.58 60.48 60.42 60.58 60.72 60.89 61.2 61.38 61.48 61.52 61.53 61.5 61.57 61.6 61.64 61.52 61.82 61.9 62.27 62.6 62.8 63.01 63.2 63.45 63.41 63.4 63.43 63.48 63.49 63.48 63.27 63.36 63.32 63.43 63.33 63.39 63.41 63.41 63.43 63.37 63.29 63.24 63.24 63.18 63.15 62.98 62.65 62.99 63.25 64.07 64.3 64.25 64.2 64.22 64.29 64.37 64.28 64.16 64.16 64.26 64.26 64.31 64.24 64.22 64.21 64.24 64.14 64.06 64 63.89 63.86 63.76 63.74 63.7 63.64 63.56 63.38 63.31 63.52 63.52 63.64 63.73 63.74 63.68 63.65 63.66 63.65 63.73 63.13 63.15 63.06 63.02 63.02 62.89 62.81 62.8 62.92 62.91 62.87 62.8 62.91 62.95 62.94 63.02 63.06 63.02 62.96 62.91 62.92 62.68 62.67 62.96 63.93 64 63.85 63.94 64.38 65.59 65.31 65.13 64.1 -9999
-9999 -9999 -9999 -9999 -9999 -9999 -9999 -9999 -9999 -9999 -9999 -9999 59.2 59.01 59.01 59.07 59.1 59.11 59.45 59.39 59.29 59.3 59.32 59.27 59.33 59.26 59.19 59.14 58.95 58.9 58.98 59.17 59.38 58.88 58.64 58.6 58.45 58.5 58.65 58.67 58.66 58.66 58.63 58.64 58.67 58.65 58.7 58.59 58.62 58.54 58.41 58.41 52.13 51.73 51.67 51.61 51.52 51.42 51.33 51.28 51.25 51.22 51.19 51.13 51.84 52.94 53.04 53.09 52.97 53.2 53.19 53.19 53.36 53.29 53.32 53.52 55.72 57.57 59.06 59.18 59.19 59.31 59.39 59.34 59.31 59.28 59.2 59.07 59.02 58.98 58.82 58.71 58.61 58.42 58.35 58.48 58.47 58.49 58.5 58.6 58.5 58.55 58.44 58.44 58.44 58.5 58.68 58.7 58.8 57.68 55.61 55.78 58.08 57.81 54.48 53.24 53.23 53.28 53.26 54.39 58.02 59.63 60.08 60.15 60.04 60.22 60.68 60.73 60.73 60.75 60.74 60.75 60.82 60.52 60.31 60.32 60.46 60.99 61.62 62.04 62.62 62.54 62.63 62.73 62.64 62.65 62.79 62.82 62.85 62.86 62.92 62.83 62.76 62.81 62.97 62.91 62.28 61.3 61 61.19 61.19 61.33 61.95 62.13 62.11 62.15 62.15 62.17 62.22 62.31 62.23 62.12 61.99 61.74 61.41 61.44 61.54 59.31 58.97 58.96 58.97 58.99 58.99 58.94 58.83 58.84 58.79 58.83 58.75 58.63 58.44 58.35 58.18 58.67 58.76 58.73 58.53 57.89 55.36 54.08 52.84 52.43 52.67 52.54 52.28 50.83 50.83 50.83 50.83 50.87 51.57 52.64 52.5 52.65 52.73 53.56 55.62 57.13 58.73 59.5 59.73 59.62 58.22 57.27 57.28 57.24 57.25 57.23 57.29 57.28 57.42 57.29 57.33 57.38 57.25 57.18 57.22 57.39 57.32 57.2 57.56 57.42 57.43 57.5 57.6 57.67 57.8 57.24 57.23 57.49 57.72 57.91 58 58.29 58.4 58.19 58.18 58.29 58.68 58.78 58.39 58.81 58.23 58.16 57.96 57.81 57.26 57.01 56.85 56.51 57.69 57.66 56.84 56.47 56.28 56.24 56.19 56.17 56.39 56.16 56.03 56.13 56.52 56.75 56.92 57.17 57.31 57.41 57.42 58.03 58.4 58.75 58.97 59.15 59.26 59.35 59.37 59.21 59.03 59.18 59.19 59.3 59.39 59.52 59.65 59.84 60.11 60.14 60.38 60.37 60.25 60.17 60.41 60.44 60.44 60.52 60.44 60.39 60.44 60.97 60.81 60.97 61.13 61.34 61.6 61.53 61.56 61.57 61.58 61.61 61.62 61.65 61.82 62.11 62.55 62.92 63.27 63.44 63.37 63.37 63.35 63.46 63.51 63.58 63.27 63.38 63.33 63.36 63.33 63.44 63.39 63.41 63.35 63.28 63.21 63.21 63.26 63.17 63.13 63.13 63.13 63.19 62.99 63.21 63.59 64.29 64.3 64.28 64.28 64.32 64.26 64.26 64.23 64.27 64.27 64.25 64.24 64.25 64.23 64.18 64.18 64.14 64.06 63.98 63.92 63.82 63.79 63.71 63.68 63.71 63.6 63.53 63.39 63.49 63.51 63.49 63.57 63.6 63.62 63.64 63.66 63.69 63.75 63.24 63.07 63.09 63.03 63 62.91 62.84 62.78 62.89 62.92 62.91 62.91 62.91 62.91 62.88 62.9 62.91 62.97 62.98 62.9 62.88 62.6 62.7 62.73 63.69 64.07 63.96 64.01 63.85 64.71 65.51 65.44 65.45 64.06 -9999
-9999 -9999 -9999 -9999 -9999 -9999 -9999 -9999 -9999 -9999 -9999 -9999 58.84 58.86 58.9 58.98 59 59.1 59.07 59.23 59.04 59.23 59.5 59.33 59.3 59.25 59.21 59.14 59.08 59.13 59.05 59.01 59.28 58.79 58.61 58.62 58.5 58.55 58.7 58.69 58.68 58.73 58.65 58.67 58.77 58.77 58.91 58.65 58.59 58.62 58.56 58.58 52.7 51.71 51.62 51.53 51.46 51.43 51.39 51.32 51.25 51.21 51.14 51.12 51.6 52.68 53.1 53.02 53.05 53.14 53.24 53.38 53.26 53.32 53.32 53.39 54.45 56.71 58.65 59.22 59.22 59.26 59.27 59.3 59.25 59.14 59.13 59.14 59.02 59.04 58.88 58.81 58.83 58.54 58.42 58.45 58.46 58.45 58.49 58.72 58.52 58.57 58.55 58.42 58.42 58.48 58.62 58.75 58.91 57.36 55.8 56.38 58.1 56.66 53.78 53.16 53.12 53.18 53.35 54.87 57.25 59.06 59.18 59.37 59.68 59.94 60.12 60.1 60.19 60.37 60.76 60.77 60.71 60.71 60.8 60.75 60.84 60.26 60.39 60.55 60.72 61.33 61.84 62.13 62.29 62.53 62.56 62.63 62.74 62.81 62.88 62.89 62.93 62.82 62.88 62.81 62.87 62.82 62.79 62.08 61.37 61.53 61.68 61.88 62.12 62.23 62.28 62.26 62.26 62.24 62.21 62.22 62.09 61.88 61.69 61.61 61.63 60.85 58.9 58.92 58.96 58.92 58.9 58.82 58.77 58.76 58.73 58.85 58.69 58.55 58.44 58.21 58.2 58.72 58.74 58.83 58.44 56.74 54.92 53.14 52.8 52.64 52.55 52.62 51.73 50.8 50.83 50.85 50.82 51.36 52.16 52.55 52.46 52.52 52.98 54.66 56.58 57.66 59.3 59.46 59.72 58.68 57.4 57.36 57.37 57.32 57.28 57.36 57.33 57.37 57.3 57.38 57.36 57.31 57.18 57.24 57.24 57.34 57.44 57.44 57.55 57.69 57.72 57.56 57.57 57.64 57.75 57.89 57.82 57.76 57.8 57.9 58.11 58.3 58.33 58.22 58.25 58.49 58.83 58.93 58.89 58.63 58.64 58.35 58.07 57.97 57.34 56.55 56.52 57.6 57.61 57.7 56.62 56.56 56.37 56.29 56.19 56.19 56.18 56.1 56.01 56.17 56.55 56.93 57.19 57.29 57.95 58.06 58.4 58.53 58.79 58.84 59.26 59.28 59.34 59.48 59.23 59 59.06 59.09 59.37 59.27 59.37 59.62 59.78 59.93 60.07 60.12 60.31 60.4 60.13 60.29 60.37 60.42 60.33 60.32 60.24 60.33 60.62 60.98 61.06 61.13 61.11 61.21 61.39 61.58 61.55 61.58 61.59 61.56 61.6 61.66 61.75 62.41 63.07 63.21 63.29 63.43 63.44 63.44 63.44 63.43 63.36 63.35 63.38 63.37 63.37 63.44 63.43 63.36 63.3 63.26 63.11 63.16 63.15 63.08 63.14 63.07 63.17 63.23 63.18 63.04 63.39 64.22 64.43 64.27 64.29 64.41 64.26 64.23 64.25 64.23 64.2 64.21 64.17 64.14 64.14 64.18 64.22 64.19 64.16 64.13 63.98 63.85 63.8 63.78 63.75 63.7 63.71 63.67 63.59 63.44 63.5 63.41 63.42 63.48 63.53 63.6 63.57 63.59 63.27 63.23 63.11 63.06 63.03 62.96 62.94 62.93 62.86 62.83 62.8 62.98 62.95 62.94 62.93 62.93 62.92 62.79 62.74 62.77 62.76 62.84 63.02 62.92 62.77 62.66 62.84 63.94 64.04 63.9 63.87 64.41 64.68 65.67 64.79 65.41 64.12 -9999
-9999 -9999 -9999 -9999 -9999 -9999 -9999 -9999 -9999 -9999 -9999 -9999 58.76 58.77 58.73 58.75 58.81 58.94 58.89 58.91 58.94 59.1 59.19 59.4 59.22 59.75 59.32 59.23 59.21 59.2 59.18 59.06 59.06 58.83 58.61 58.64 58.5 58.61 58.49 58.64 58.64 58.66 58.68 58.69 58.83 58.74 58.55 58.72 58.63 58.66 58.7 58.72 58.57 51.64 51.61 51.59 51.57 51.49 51.42 51.34 51.27 51.19 51.11 51.08 51.54 52.48 53.01 53.16 53.07 53.23 53.41 53.35 53.31 53.27 53.35 53.34 53.47 55.7 57.93 59.21 59.23 59.24 59.27 59.25 59.08 59.09 59.17 59.17 59.22 59.07 58.94 58.85 58.83 58.44 58.46 58.47 58.45 58.49 58.53 58.6 58.58 58.58 58.51 58.4 58.41 58.47 58.61 58.76 58.77 57.07 55.99 57.08 58.01 55.61 53.36 53.31 53.24 53.14 53.25 55.12 57.6 58.63 58.3 58.36 58.42 58.97 59.34 59.53 59.93 60.01 60.01 60.02 60.23 60.77 60.72 60.78 60.73 60.76 60.78 60.77 60.62 60.3 60.43 60.62 61 61.62 62.05 62.41 62.56 62.53 62.61 62.7 62.64 62.75 62.87 62.83 62.84 62.88 62.88 62.81 62.85 62.88 62.05 61.91 61.83 62.11 62.22 62.23 62.25 62.4 62.29 62.1 62.1 62.16 61.94 61.81 61.81 61.8 59.59 59 58.92 58.9 58.85 58.79 58.76 58.69 58.53 58.69 58.6 58.58 58.5 58.1 58.17 58.68 58.72 58.6 58.21 55.39 53.94 52.84 52.7 52.67 52.38 51.84 51.13 50.81 50.82 50.83 51.03 51.8 52.63 52.53 52.49 52.72 53.92 55.83 57.39 58.86 59.14 59.64 59.08 58.11 57.43 57.34 57.36 57.37 57.46 57.4 57.32 57.33 57.48 57.33 57.33 57.23 57.13 57.24 57.35 57.46 57.41 57.52 57.74 57.85 57.76 57.75 57.81 57.69 57.71 57.84 57.88 58.09 57.94 57.85 58.12 58.29 58.28 58.24 58.38 58.97 58.93 58.84 58.81 58.67 58.53 58.55 58.69 58.5 58.31 57.65 57.59 57.57 57.58 57.57 56.63 56.5 56.35 56.24 56.19 56.31 56.11 56.03 56.11 56.45 56.83 57.18 57.49 57.9 58 58.21 58.47 58.79 58.96 59.46 59.28 59.37 59.4 60.3 59.26 58.85 59 58.97 59.2 59.24 59.58 59.64 59.76 59.9 60 60.13 60.23 60.26 60.06 60.36 60.33 60.42 60.4 60.35 60.25 60.47 60.8 60.98 61.1 61.17 61.21 61.23 61.21 61.35 61.41 61.66 61.56 61.53 61.58 61.66 62.34 63.11 63.1 63.23 63.33 63.37 63.62 63.32 63.31 63.44 63.36 63.41 63.33 63.41 63.38 63.35 63.41 63.28 63.16 63.06 62.94 63.12 63.3 63.22 63.05 63.18 63.34 63.36 63.32 64.31 64.21 64.36 64.3 64.42 64.47 64.11 64.1 64.16 64.24 64.25 64.11 64.08 64.13 64.15 64.19 64.18 64.38 64.35 64.19 64.08 64 63.89 63.81 63.79 63.76 63.71 63.69 63.67 63.65 63.47 63.51 63.42 63.43 63.61 63.48 63.31 63.22 63.1 63.06 63.02 62.99 62.93 62.89 62.87 62.9 62.94 62.87 62.82 62.96 62.97 62.96 62.96 62.95 62.95 62.94 62.86 62.63 62.61 62.61 62.63 62.48 62.55 62.73 62.78 63.5 64.03 63.97 63.99 64.19 64.98 64.36 65.35 64.38 65.34 64.34 -9999
-9999 -9999 -9999 -9999 -9999 -9999 -9999 -9999 -9999 -9999 -9999 -9999 58.81 58.79 58.79 58.73 58.73 58.71 58.67 58.66 58.71 58.79 58.86 58.92 58.99 59.12 59.28 59.36 59.53 59.25 59.03 59 59.18 58.87 58.67 58.61 58.61 58.5 58.6 58.57 58.58 58.52 58.61 58.57 58.53 58.62 58.76 58.78 58.71 58.61 58.63 58.7 58.49 51.78 51.71 51.63 51.55 51.48 51.4 51.32 51.25 51.17 51.09 51.06 51.54 52.4 52.96 53.06 53.17 53.23 53.36 53.27 53.27 53.26 53.31 53.29 53.45 54.42 56.79 58.67 59.29 59.23 59.25 59.22 59.06 59.05 59.17 59.3 59.22 59.21 59.04 58.95 58.83 58.52 58.66 58.55 58.42 58.5 58.47 58.5 58.59 58.58 58.54 58.47 58.39 58.44 58.68 58.77 58.75 56.65 56.23 57.51 57.76 55.18 53.54 53.45 53.26 53.26 53.4 55.3 57.89 58.4 58.28 58.35 58.4 58.26 58.36 58.33 58.69 59.23 59.31 59.27 59.81 60.24 59.94 60.15 60.34 60.74 60.73 60.76 60.72 60.83 60.73 60.82 60.21 60.33 60.51 60.8 61.26 61.8 62.21 62.43 62.55 62.58 62.66 62.69 62.67 62.78 62.82 62.78 62.81 62.9 62.82 62.8 62.78 62.32 62.41 62.52 62.43 62.41 62.33 62.39 62.19 62.18 62.07 61.95 61.85 61.85 61.42 59.15 58.99 58.98 58.96 58.77 58.76 58.7 58.42 58.34 58.31 58.22 58.33 58.09 58.34 58.71 58.73 58.45 57.03 55.09 52.83 52.59 52.46 52.44 52.53 51.52 50.87 50.83 50.83 50.82 51.74 52.23 52.5 52.62 52.45 53.24 55.07 56.96 58.31 58.72 59.46 59.64 58.72 57.46 57.48 57.45 57.4 57.41 57.44 57.37 57.35 57.32 57.39 57.36 57.37 57.27 57.38 57.35 58.01 57.55 57.49 57.6 57.84 57.91 57.85 57.83 57.87 57.82 57.83 57.8 57.83 57.98 58.02 58.11 58.1 58.36 58.28 58.25 58.5 58.85 58.87 58.72 58.61 58.91 58.57 58.53 58.56 58.49 58.42 58.35 58.04 57.91 57.71 56.75 56.53 56.42 56.38 56.24 56.16 56.23 56.06 55.95 56.15 56.68 57.09 57.5 57.72 57.82 58.04 58.41 58.46 58.81 59.41 60.41 60.15 59.44 59.63 59.85 58.74 58.84 58.9 59.1 59.07 59.23 59.49 59.71 59.76 59.88 59.91 60.12 60.01 59.94 60.32 60.33 60.35 60.34 60.22 60.18 60.26 60.73 60.81 60.9 61.12 61.2 61.33 61.29 61.32 61.3 61.39 61.45 61.45 61.52 62.41 62.83 62.83 63.03 63.15 63.29 63.4 63.48 63.37 63.41 63.39 63.37 63.4 63.44 63.35 63.39 63.35 63.14 63.16 63.09 62.71 63.06 63.27 63.29 63.32 63.19 63.05 63.39 63.74 64.35 65.35 64.6 64.35 64.47 64.29 64.32 64.24 64.14 64.18 64.22 64.23 64.23 64.08 64.13 64.1 64.13 64.1 64.14 64.34 64.26 64.18 64.12 64.12 64.1 63.87 63.77 63.73 63.71 63.68 63.69 63.65 63.45 63.51 63.47 63.51 63.64 63.46 63.3 63.17 63.07 63.01 62.95 62.91 62.87 62.8 62.84 62.88 62.87 62.85 62.86 63.02 62.99 62.99 62.98 62.97 62.97 62.96 62.92 62.7 62.47 62.47 62.42 62.4 62.93 62.69 62.97 63.91 64.12 63.86 64.03 64.86 64.33 64.16 64.27 64.29 64.26 64.21 -9999
-9999 -9999 -9999 -9999 -9999 -9999 -9999 -9999 -9999 -9999 -9999 -9999 58.83 58.77 58.75 58.72 58.67 58.67 58.65 58.68 58.7 58.72 58.78 58.83 58.84 58.84 58.85 58.83 58.91 58.93 58.98 59.03 58.97 58.88 58.72 58.69 58.66 58.6 58.63 58.7 58.73 58.77 58.83 58.84 58.76 58.72 58.79 58.85 58.67 58.66 58.74 58.7 58.66 54.51 51.72 51.64 51.57 51.49 51.42 51.34 51.27 51.23 51.16 51.39 51.45 52.24 53.2 53.07 53.12 53.15 53.17 53.39 53.29 53.38 53.31 53.45 53.39 53.28 55.61 57.98 59.27 59.22 59.22 59.13 59.12 59.07 59.15 59.24 59.26 59.24 59.11 58.98 58.92 58.89 58.86 58.67 58.39 58.42 58.43 58.51 58.63 58.44 58.44 58.44 58.44 58.5 58.87 59.04 58.85 56.51 56.38 57.89 57.17 54.71 53.28 53.3 53.31 53.35 53.7 55.82 58.21 58.3 58.35 58.32 58.37 58.34 58.33 58.36 58.36 58.32 58.81 58.69 58.45 58.34 58.89 59.35 59.92 59.93 60.02 60.21 60.72 60.77 60.77 60.72 60.78 60.76 60.77 60.61 60.31 60.32 60.53 61.02 61.57 61.55 62.41 62.56 62.51 62.64 62.68 62.61 62.75 62.78 62.79 62.75 62.86 62.76 62.63 62.69 62.7 62.68 62.54 62.32 62.19 62.22 62.12 61.98 61.88 61.84 61.98 60.76 59.17 59.01 58.83 58.69 58.74 58.69 58.34 58.22 58.2 58.15 58.06 58.11 58.58 58.71 58.62 58.22 55.55 53.89 52.64 52.56 52.61 52.47 52.47 50.94 50.84 50.84 50.81 50.88 52.09 52.83 52.57 52.41 52.73 54.41 56.09 57.87 58.18 59.48 59.72 59.18 57.99 57.56 57.49 57.44 57.37 57.46 57.41 57.4 57.42 57.34 57.32 57.35 57.35 57.29 57.32 57.46 58.15 58.02 57.64 57.7 57.76 57.87 57.83 57.9 57.86 57.84 57.9 57.88 57.9 58.03 58.2 58.2 58.2 58.38 58.33 58.32 58.81 58.8 58.71 58.6 58.69 58.74 58.57 58.55 58.65 58.49 58.64 58.56 58.59 58.56 58.42 56.64 56.53 56.37 56.32 56.19 56.24 56.07 55.98 55.91 56.18 56.86 57.34 57.58 57.84 57.85 58.08 58.33 58.58 59.04 59.88 60.54 60.73 60.68 59.99 58.78 58.68 58.79 58.81 58.99 59.05 59.37 59.38 59.67 59.79 59.79 59.96 59.97 59.82 60.01 60.12 60.28 60.25 60.21 60.14 60.14 60.41 60.84 60.85 60.92 61.08 61.34 61.33 61.31 61.43 61.42 61.38 61.43 61.72 62.34 62.51 62.79 63 63.24 63.32 63.35 63.37 63.42 63.4 63.39 63.46 63.41 63.36 63.29 63.25 63.16 63.13 62.98 62.88 63.1 63.22 63.27 63.27 63.15 63.28 63.07 63.42 64.73 64.12 64.99 65.14 64.48 64.21 64.21 64.27 64.32 64.18 64.09 64.15 64.13 64.12 64.12 64.07 64.08 64.07 64.11 64.01 64.07 64.23 64.19 64.09 64.15 64.13 64.03 63.91 63.84 63.75 63.67 63.7 63.71 63.68 63.47 63.48 63.65 63.64 63.61 63.46 63.44 63.17 63.14 63.29 63.01 63 62.83 62.76 62.82 62.85 62.86 62.86 62.92 62.99 63.02 63.01 63 62.99 62.99 62.98 62.99 62.76 62.54 62.35 62.31 62.2 62.74 62.75 63.4 64.01 64.06 63.85 64.21 64.46 64.22 64.3 64.39 64.43 64.33 64.2 -9999
-9999 -9999 -9999 -9999 -9999 -9999 -9999 -9999 -9999 -9999 -9999 58.67 58.95 58.84 58.74 58.77 58.72 58.9 58.75 58.76 58.75 58.77 58.84 58.79 58.85 58.87 58.92 58.92 58.81 58.77 58.83 58.9 58.78 58.8 58.73 58.72 58.75 58.64 58.63 58.68 58.78 58.8 58.77 58.86 58.81 58.78 58.74 58.77 58.75 58.75 58.76 58.75 58.69 58.41 51.74 51.67 51.59 51.52 51.44 51.4 51.34 51.28 51.2 51.38 51.56 52.21 53.22 53.13 53.09 53.03 53.23 53.32 53.55 53.38 53.37 53.37 53.41 53.46 54.45 56.86 58.73 59.2 59.18 59.12 59.14 59.19 59.15 59.2 59.2 59.21 59.2 59.13 59.05 59.04 58.93 58.79 58.48 58.37 58.39 58.44 58.45 58.42 58.37 58.37 58.5 58.69 59.15 59.13 58.79 56.57 56.59 57.94 56.61 54.3 53.27 53.41 53.33 53.28 53.79 56.15 58.33 58.34 58.31 58.29 58.37 58.37 58.36 58.33 58.34 58.28 58.51 58.39 58.33 58.12 58.05 58.09 58.23 58.29 58.97 59.62 59.87 60.03 60.14 60.38 60.79 60.73 60.77 60.67 60.82 60.77 60.79 60.33 60.44 60.32 61.01 61.45 61.4 62.09 62.22 62.54 62.58 62.65 62.65 62.73 62.76 62.78 62.78 62.66 62.72 62.92 62.74 62.86 62.89 62.69 62.38 62.03 61.92 61.82 61.78 61.85 60.27 59.09 58.89 58.77 58.65 58.58 58.48 58.36 58.24 58.14 58.02 58.16 58.66 58.74 58.5 57.42 55.07 52.91 52.47 52.61 52.74 52.48 51.78 50.72 50.84 50.84 50.82 51.56 52.63 52.6 52.54 52.5 53.64 55.57 57.19 57.65 58.68 59.68 59.52 58.55 57.53 57.48 57.44 57.47 57.38 57.47 57.4 57.42 57.45 57.43 57.44 57.36 57.34 57.21 57.64 58.27 58.08 57.77 57.57 57.64 57.53 57.63 57.8 57.91 57.91 57.89 57.86 57.86 58.03 58.2 58.24 58.3 58.41 58.34 58.29 58.53 58.52 58.89 58.88 58.1 58.66 58.61 58.62 58.74 58.72 58.61 58.73 58.72 58.7 58.78 57.9 56.62 56.42 56.34 56.22 56.15 56.24 56.03 55.92 55.95 56.45 57.08 57.45 57.68 57.99 58.1 58.23 58.44 58.86 59.25 60.07 60.55 60.6 60.6 59.32 58.61 58.69 58.65 58.92 58.86 59.12 59.34 59.51 59.56 59.66 59.71 59.98 59.81 59.76 60.09 60.13 60.17 60.29 60.15 60.08 60.28 60.66 60.82 60.86 60.98 61.08 61.17 61.29 61.52 61.85 62.13 62.51 62.32 62.18 62.52 62.99 63.12 63.29 63.37 63.4 63.4 63.38 63.35 63.39 63.41 63.39 63.32 63.26 63.16 63.07 62.79 62.72 63.14 63.13 63.09 63.19 63.09 63.06 63.09 63.11 63.88 63.91 63.99 63.97 64.25 64.18 64.18 64.19 64.17 64.26 64.27 64.14 64.07 64.15 64.24 64.17 64.12 64.08 64.08 64.05 64.03 64.04 64.07 64.27 64.17 64.17 64.18 64.14 64.06 63.98 63.84 63.76 63.71 63.78 63.75 63.74 63.5 63.51 63.71 63.72 63.61 63.48 63.29 63.21 63.14 63.15 63.13 63.1 62.98 62.91 62.78 62.83 62.89 62.9 62.88 62.96 62.98 63 63.03 63.01 63.01 63 62.99 62.83 62.6 62.37 62.21 62.89 62.71 62.87 63.96 63.96 63.91 63.88 64.16 64.6 64.2 64.21 64.26 64.33 64.35 64.24 -9999
-9999 -9999 -9999 -9999 -9999 -9999 -9999 -9999 -9999 -9999 -9999 58.8 58.86 58.88 58.88 58.87 58.78 58.86 58.92 58.73 58.68 58.91 58.93 58.96 59.02 58.98 59.06 58.91 58.77 58.76 58.76 58.73 58.75 58.74 58.81 58.8 58.83 58.61 58.6 58.73 58.79 58.87 58.93 58.9 58.86 58.76 58.68 58.77 58.8 58.8 58.78 58.75 58.69 58.53 51.84 51.7 51.63 51.58 51.52 51.47 51.41 51.28 51.15 51.09 51.6 51.95 52.99 53.03 53.04 52.99 53.17 53.31 53.45 53.4 53.33 53.32 53.4 53.41 53.37 55.75 57.84 59.21 59.22 59.1 59.12 59.11 59.11 59.17 59.19 59.2 59.17 59.11 59.14 59.14 58.99 58.66 58.32 58.34 58.35 58.36 58.38 58.37 58.45 58.45 58.53 58.64 59.07 59 58.73 56.76 57 58.15 56.23 54.38 53.44 53.2 53.4 53.3 54.26 56.61 58.58 58.47 58.36 58.28 58.17 58.16 58.19 58.22 58.3 58.38 58.49 58.29 58.22 58.02 58.01 58.02 58.06 58.04 58.13 58.23 58.25 58.45 59.21 59.84 60.12 59.98 60.24 60.72 60.74 60.76 60.66 60.74 60.81 60.76 60.68 60.35 60.56 60.71 60.85 61.36 61.63 62.08 62.49 62.45 62.61 62.7 62.7 62.68 62.59 62.64 62.74 62.74 62.96 62.93 62.82 62.59 62.5 62.1 61.91 61.82 62.06 60.7 59.49 58.99 58.78 58.53 58.67 58.73 58.56 58.4 58.01 58.36 58.81 58.61 58.37 56.15 54.13 52.59 52.46 52.61 52.5 52.49 50.89 50.87 50.84 50.86 50.86 52.01 52.62 52.62 52.45 53.01 54.87 56.54 57.18 58.1 59.61 59.65 58.98 57.78 57.58 57.53 57.54 57.46 57.49 57.46 57.44 57.43 57.51 57.49 57.5 57.43 57.35 57.29 57.97 58.24 58.12 57.68 57.72 57.86 57.52 57.82 57.6 57.72 57.82 57.87 57.81 57.9 58.1 58.21 58.44 58.42 58.37 58.38 58.37 58.63 58.82 58.82 58.78 58.66 58.59 58.57 58.6 58.63 58.65 58.67 58.75 59.02 58.75 58.79 56.97 56.55 56.39 56.27 56.19 56.12 56.14 55.99 55.92 56.14 56.91 57.29 57.55 57.71 58.08 58.56 58.61 58.53 59.27 59.48 60.43 60.55 60.56 59.75 58.58 58.6 58.6 58.58 58.92 58.91 59.18 59.37 59.44 59.62 59.49 59.68 59.73 59.64 59.92 60.08 60.21 60.23 60.11 60.03 60.1 60.49 60.63 60.73 60.83 60.93 61.06 61.15 61.2 61.5 63.04 62.9 62.77 62.74 62.86 63.08 63.39 63.37 63.42 63.42 63.43 63.4 63.42 63.36 63.39 63.37 63.27 63.01 63.06 62.76 62.85 63.2 63.24 63.13 63.02 63.05 63.01 63 62.97 63.09 63.12 63.78 64 63.94 64.06 64.15 64.15 64.13 64.13 64.2 64.26 64.3 64.16 64.1 64.03 64.16 64.22 64.14 64.05 63.97 63.99 64 64 64.01 64.22 64.14 64.17 64.21 64.15 64.07 63.97 63.93 63.7 63.74 63.84 63.72 63.73 63.57 63.54 63.75 63.79 63.64 63.51 63.31 63.24 63.22 63.22 63.18 63.16 63.19 63.12 62.83 62.79 62.88 63.02 62.84 62.92 62.94 62.96 62.99 63.01 63.03 63.02 63.01 62.89 62.67 62.44 62.15 62.79 62.76 63.21 63.92 63.9 63.83 63.97 64.81 64.22 64.17 64.29 64.23 64.39 64.4 64.43 -9999
-9999 -9999 -9999 -9999 -9999 -9999 -9999 -9999 -9999 -9999 -9999 58.91 58.78 58.99 58.94 58.87 58.91 58.73 58.37 58.4 58.86 58.98 59.03 59.05 59.11 58.97 58.93 58.86 58.78 58.71 58.72 58.74 58.74 58.77 58.82 58.74 58.84 58.58 58.59 58.68 58.8 58.87 58.93 58.98 58.98 58.76 58.73 58.78 58.79 58.76 58.72 58.78 58.71 58.65 57.05 51.74 51.71 51.66 51.6 51.53 51.4 51.32 51.25 51.18 51.13 51.98 52.75 53.06 53.1 53.1 53.16 53.26 53.36 53.32 53.4 53.43 53.45 53.42 53.58 54.49 56.8 58.7 59.11 59.02 59.08 59.12 59.13 59.2 59.18 59.19 59.12 59.12 59.16 59.17 59.1 58.66 58.35 58.33 58.33 58.32 58.43 58.46 58.49 58.65 58.58 58.69 59.17 59.01 58.29 56.94 57.48 58.09 56.16 54.28 53.55 53.39 53.32 53.27 54.71 57.15 58.62 58.54 58.55 58.29 58.13 57.96 57.93 58.1 58.29 58.4 58.42 58.25 58.15 58.02 57.92 57.95 57.98 57.95 57.93 57.98 58.01 58.05 58.21 58.19 58.37 58.75 59.46 59.94 60.01 60.01 60.38 60.81 60.73 60.79 60.78 60.87 60.77 60.84 60.34 60.41 60.35 60.5 60.9 61.29 61.79 62.55 62.56 62.53 62.63 62.65 62.72 62.79 62.82 62.68 62.78 62.84 63.01 62.83 62.68 61.95 61.88 61.86 61.82 60.04 59.35 58.82 58.77 59.03 58.72 58.64 58.02 58.2 58.52 58.47 58.02 55.28 52.89 52.61 52.73 52.62 52.41 51.98 50.89 50.86 50.82 50.85 51.08 52.77 52.77 52.47 52.6 54.01 55.86 56.76 57.6 59.66 59.75 59.45 58.46 57.65 57.59 57.51 57.57 57.53 57.52 57.45 57.57 57.44 57.58 57.48 57.48 57.37 57.28 57.4 57.57 57.97 58.01 57.65 57.71 57.74 57.83 57.8 57.93 57.97 57.8 57.88 57.86 58.07 58.34 58.28 58.51 58.54 58.37 58.37 58.55 58.97 58.91 58.34 57.91 58.64 58.63 58.95 58.8 58.74 58.76 58.83 58.76 58.74 58.79 58.53 56.6 56.48 56.34 56.21 56.15 56.12 56.02 55.93 55.87 56.14 57.17 57.32 57.62 57.84 58.14 58.46 58.68 58.9 59.26 59.62 60.48 60.63 60.47 58.76 58.43 58.48 58.47 58.75 58.81 58.97 59.22 59.41 59.52 59.41 59.48 59.81 59.68 59.72 59.95 60.04 60.16 60.09 59.98 60 60.26 60.58 60.57 60.66 60.79 60.89 61.02 61.26 62.47 63.09 63.09 63.06 63.03 63.27 63.42 63.46 63.44 63.35 63.4 63.45 63.52 63.32 63.42 63.33 63.26 63.12 63.16 62.66 62.9 62.89 63.09 63.17 63.09 63.01 62.94 62.93 62.89 62.96 63.03 63.15 63.25 63.99 64.04 63.92 63.97 64.08 64.08 64.13 64.15 64.21 64.22 64.28 64.15 64.08 64.04 64.09 64.1 64.06 64.07 64.05 63.97 63.89 63.98 63.99 64.13 64.14 64.16 64.13 64.13 64.08 64.04 63.87 63.72 63.77 63.82 63.78 63.64 63.6 63.65 63.79 63.84 63.59 63.59 63.3 63.29 63.35 63.29 63.25 63.22 63.21 63.1 62.88 62.85 62.91 62.87 62.8 62.91 62.9 62.93 62.95 62.97 63 63.02 63.03 62.96 62.72 62.37 62.87 62.73 62.87 63.48 64.04 63.83 63.77 64.21 64.41 64.22 64.3 64.24 64.27 64.38 64.38 64.39 -9999
-9999 -9999 -9999 -9999 -9999 -9999 -9999 -9999 -9999 -9999 -9999 58.97 58.93 59.01 58.9 58.92 59 58.78 58.54 58.83 58.37 59.15 59.05 59.1 59.03 58.96 58.89 58.86 58.66 58.85 58.77 58.63 58.68 58.75 58.84 58.73 58.87 58.66 58.6 58.7 58.79 58.91 58.88 58.97 59 58.78 58.78 58.79 58.81 58.81 58.8 58.8 58.76 58.69 58.58 51.75 51.77 51.74 51.66 51.58 51.49 51.41 51.32 51.24 51.32 51.79 52.42 53.15 53.07 53.07 53.1 53.13 53.2 53.32 53.37 53.38 53.47 53.47 53.53 53.33 55.58 57.88 59.05 58.97 58.98 59.09 59.15 59.15 59.16 59.06 59.03 59.14 59.09 59.22 58.98 58.79 58.52 58.38 58.39 58.48 58.48 58.63 58.58 58.56 58.52 58.65 58.97 59.11 57.78 57.05 57.85 57.75 55.89 54 53.42 53.34 53.3 53.35 55.11 57.78 58.64 58.51 58.42 58.22 58.04 57.84 57.7 58.06 58.34 58.37 58.42 58.19 58.05 57.97 57.86 57.86 57.94 57.92 57.88 57.89 57.92 57.88 57.89 57.81 57.85 58.05 58.15 58.18 58.31 58.93 59.6 59.87 59.91 60.25 60.65 60.73 60.82 60.8 60.73 60.76 60.79 60.65 60.32 60.26 60.5 60.79 61.08 61.63 62.11 62.42 62.45 62.59 62.67 62.7 62.74 62.71 62.74 62.79 63.13 63.14 62.38 61.95 61.99 62.11 61.87 60.23 59.22 58.7 58.66 58.6 58.51 58.39 58.53 58.8 57.46 54.19 52.62 52.55 52.63 52.48 52.43 50.86 50.9 50.85 50.81 50.77 51.63 52.74 52.53 52.41 53.11 55.17 56.41 56.59 59.16 59.52 59.75 59.16 57.59 57.62 57.58 57.67 57.61 57.53 57.45 57.54 57.45 57.45 57.59 57.46 57.45 57.31 57.47 57.44 57.72 58.02 57.69 57.65 57.57 57.67 57.85 57.86 58 58.05 57.96 57.9 58.07 58.4 58.44 58.61 58.67 58.57 58.45 58.39 58.62 58.8 58.91 58.9 58.64 58.63 58.82 58.89 58.6 58.67 58.65 58.68 58.8 58.7 58.56 58.39 56.55 56.55 56.25 56.19 56.1 56.2 56.02 55.89 55.88 56.19 57.5 57.63 57.64 57.88 58.23 58.68 58.7 58.92 59.34 60.24 60.43 60.21 59.03 58.33 58.38 58.38 58.41 58.72 58.77 58.97 59.02 59.13 59.2 59.28 59.49 59.83 59.69 59.72 59.86 60.02 60.27 59.99 59.91 60.01 60.49 60.52 60.57 60.64 60.77 61.19 62.75 62.99 63.06 63.06 63.24 63.39 63.46 63.47 63.38 63.39 63.38 63.47 63.48 63.31 63.31 63.3 63.26 63.22 63.05 62.69 62.67 62.68 62.69 62.84 62.87 62.92 62.83 62.84 62.86 62.9 62.94 63.03 63.02 63.07 63.15 63.96 64.1 63.94 64 64.16 64.13 64.1 64.15 64.18 64.22 64.32 64.21 64.2 64.11 64.08 64.01 64.03 64.04 64.01 63.98 64.01 64.02 63.98 63.98 64 64.03 64.1 64.08 64.07 64.03 63.8 63.76 63.89 63.81 63.74 63.6 63.64 63.7 63.8 63.85 63.67 63.55 63.32 63.22 63.36 63.33 63.28 63.3 63.27 63.15 62.97 62.83 62.99 62.94 62.82 62.83 62.85 62.88 62.93 62.95 62.97 62.98 63.01 62.96 62.94 62.28 62.78 62.78 62.91 63.91 63.98 63.95 63.81 64.41 64.43 64.35 64.31 64.27 64.32 64.39 64.36 64.39 -9999
