ncols         439
nrows         36
xllcenter     357520
yllcenter     504615
cellsize      5
nodata_value  -9999
-9999 -9999 -9999 -9999 -9999 -9999 -9999 -9999 -9999 -9999 75.65 75.66 75.71 75.62 75.63 76.17 76.06 76.07 76.04 76.1 76.03 75.94 76.07 76.08 75.93 75.89 75.89 75.95 76.02 75.95 75.93 75.9 75.96 75.94 75.96 75.96 76.04 76 75.97 76 75.99 76.01 76.01 75.77 75.92 75.91 76.09 75.8 75.7 75.69 75.58 75.87 75.91 75.75 75.68 75.85 75.85 75.81 75.79 75.68 76.14 75.61 75.87 75.69 75.89 75.48 75.29 75.32 75.41 75.62 75.66 75.56 75.53 75.57 75.63 75.86 75.84 75.71 75.99 75.54 75.77 75.64 75.81 75.76 75.57 75.79 75.37 73.78 72.16 71.99 72.01 71.8 71.81 71.74 71.76 71.67 71.92 71.67 71.54 71.51 71.7 71.52 71.2 71.02 71.11 70.98 70.94 71.01 70.93 71.01 71.21 71.78 71.64 71.56 71.5 71.65 71.88 71.8 71.81 71.69 71.66 71.59 71.5 71.49 71.44 71.43 71.46 71.49 71.53 71.61 71.66 71.71 71.82 71.8 71.9 71.77 71.87 71.89 71.88 71.87 71.9 71.92 72 72.04 72.1 72.15 72.16 72.34 72.17 72.14 72.1 71.84 71.69 71.68 71.79 72.12 71.92 71.76 71.67 71.6 71.65 71.72 71.72 71.75 71.75 71.84 71.9 71.93 72.09 72.32 72.28 72.37 72.29 72.26 72.26 71.95 72.64 72.62 72.14 72.38 72.65 72.63 72.62 72.69 72.59 72.59 72.69 72.57 72.39 72.34 72.41 72.62 72.58 72.5 72.2 71.91 71.8 71.59 71.62 71.44 71.52 71.5 71.52 71.51 71.47 71.46 71.52 71.48 71.32 71.11 71 70.73 70.33 69.61 69.58 69.33 69.05 68.97 68.6 68.58 68.53 68.53 68.38 68.49 68.38 67.52 66.4 67.06 67.06 67.01 66.38 65.06 64.96 65.13 65.16 64.96 64.84 64.92 64.76 64.69 64.36 64.2 64.15 63.39 61.61 61.45 61.25 60.93 60.64 60.34 59.99 59.76 59.63 59.55 59.54 59.43 59.46 59.44 59.35 59.4 59.41 58.97 59.07 59.04 59.18 59.15 59.08 59.16 59.11 59.04 58.98 58.8 58.67 58.7 58.55 58.43 58.34 58.23 58.31 58.27 58.23 58.22 58.22 58.14 58.03 58 57.8 57.77 57.59 57.46 57.38 57.36 57.22 56.86 56.75 56.64 56.56 56.5 56.39 56.32 56.19 56.1 56.01 55.93 55.86 55.8 55.78 55.74 55.76 55.71 55.72 55.68 55.69 55.63 55.59 55.58 55.62 55.52 55.55 55.52 55.71 55.95 55.87 55.92 56.46 56.31 56.25 56.22 56.09 56.03 55.89 55.89 55.83 55.83 55.82 55.76 55.72 55.71 55.86 56.04 56.12 56.15 56.14 56.07 56.13 56.08 56.13 56.22 56.28 56.33 56.42 56.47 56.53 56.64 56.74 56.84 56.94 57.08 57.21 57.35 57.21 57.34 57.19 56.61 56.17 56.12 56.04 55.73 55.77 55.7 55.62 55.63 55.56 55.45 55.35 55.31 55.24 55.27 55.41 55.42 55.29 55.36 55.23 55.04 54.97 55.03 55.18 54.89 54.86 54.78 54.59 54.66 54.8 54.58 54.47 54.6 54.71 54.88 54.96 55 54.96 54.94 55.09 54.98 55.03 55.09 55.21 55.51 55.7 55.74 56.19 57.47 57.33 57.47 58.86 59.13 57 56.73 56.31 55.84 54.25 54.06 53.86 53.77 53.67 53.72 53.73 53.71 53.72 53.79 53.97 53.71 53.77 53.82 53.78 53.76 -9999 -9999 -9999
-9999 -9999 -9999 -9999 -9999 -9999 -9999 -9999 -9999 -9999 75.71 75.62 75.71 75.58 75.65 76.12 76.06 76.07 76.01 76.17 76.09 75.94 76.16 76.03 75.95 75.98 75.92 75.97 76.02 75.98 76.01 76.02 75.98 76.03 75.96 75.99 75.98 75.99 76.02 76.01 75.96 75.94 75.86 75.83 75.94 75.78 75.86 75.84 75.71 75.72 75.61 75.9 75.9 75.76 75.7 75.94 75.87 75.9 75.75 75.82 76.17 75.82 75.7 75.69 76 75.79 75.38 75.33 75.41 75.63 75.62 75.64 75.67 75.55 75.53 76.07 75.86 75.79 75.56 75.74 75.71 75.78 75.69 75.57 75.74 75.41 74.83 72.21 72.13 72.02 71.99 71.9 72.19 71.98 71.88 71.75 71.95 71.98 71.9 71.52 71.48 71.42 71.11 71.03 70.96 71.01 71.03 71.66 70.97 71.16 71.6 71.91 71.58 71.65 71.71 71.88 71.84 71.85 71.89 71.9 71.89 71.85 71.77 71.57 71.52 71.5 71.54 71.62 71.71 71.77 72.08 72.87 72.89 72.87 71.94 71.93 71.97 71.93 71.94 71.96 71.85 71.97 72.05 72.13 72.14 72.16 72.21 72.32 72.2 72.12 72.02 71.87 71.81 71.79 71.95 72 72.04 72.13 72.62 72.33 72.02 71.88 71.7 71.72 71.8 71.82 71.83 71.87 71.87 71.91 72.03 72.08 72.12 72.13 72.16 72.33 72.62 72.57 71.77 72.56 72.68 72.54 72.53 72.61 72.49 72.67 72.73 72.55 72.43 72.41 72.45 72.56 72.45 72.26 72.02 71.91 71.79 71.76 71.53 71.71 72.36 72.38 72.18 71.68 71.66 71.56 71.43 71.32 71.15 70.98 70.8 70.61 70.46 70.3 69.98 69.39 69.22 69.14 68.34 68.36 68.53 68.24 68.54 68.6 67.98 67.5 67.33 67.11 66.99 66.93 65.83 65.08 65.08 65.17 65.11 64.91 64.74 64.62 64.55 64.44 64.3 64.26 64.23 62.71 61.36 61.14 60.63 60.54 60.51 60.32 60.05 59.87 59.58 59.51 59.47 59.54 59.48 59.42 59.39 59.33 59.14 58.99 59.1 59.05 59.22 59.17 59.08 59.16 59.16 59.12 59.17 58.79 58.74 58.61 58.46 58.42 58.34 58.37 58.24 58.26 58.19 58.17 58.19 58.09 57.92 57.91 57.77 57.7 57.61 57.45 57.33 57.22 57.04 56.8 56.69 56.62 56.59 56.51 56.38 56.26 56.17 56.13 56.01 55.95 55.81 55.79 55.76 55.7 55.69 55.7 55.69 55.66 55.65 55.6 55.61 55.56 55.55 55.55 55.64 55.41 55.47 55.41 55.39 55.43 55.74 56.1 56.25 56.19 56.17 56.17 56.08 56.02 55.91 55.89 55.77 55.78 55.78 55.76 55.76 55.74 55.73 55.75 55.99 56.07 56.04 56.07 56.09 56.12 56.19 56.27 56.35 56.45 56.49 56.65 56.71 56.86 56.93 57.09 57.24 57.39 57.18 57.25 57.11 56.5 56.13 56.07 55.95 55.83 55.71 55.68 55.58 55.81 55.8 55.39 55.48 55.45 55.2 55.11 55.07 55.17 55.17 55.51 55.03 55.03 55.2 55.26 55.04 54.8 54.7 54.71 54.7 54.55 54.45 54.59 54.5 54.68 54.75 54.78 54.89 55.04 55.04 55.13 54.98 54.99 55.08 55.15 55.19 55.42 55.61 55.66 56.12 57.42 57.36 57.55 58.79 58.66 56.38 56.35 56.22 55.26 54.24 53.91 53.9 53.84 53.66 53.67 53.71 53.74 53.73 53.72 53.61 53.69 53.77 53.78 53.8 -9999 -9999 -9999 -9999
-9999 -9999 -9999 -9999 -9999 -9999 -9999 -9999 -9999 -9999 75.68 75.67 75.67 75.59 75.62 76.07 76.08 76.12 76.13 76.2 76.08 76.04 75.94 75.92 75.9 75.91 75.96 75.97 76.01 76 75.95 75.96 75.95 76 75.98 75.97 76.04 76.02 76.07 76.01 75.95 75.97 75.77 75.87 75.88 75.85 75.89 75.88 75.73 75.75 75.63 75.83 75.82 75.76 75.74 75.9 75.88 75.74 76 75.97 76.08 75.67 75.61 75.92 75.79 75.66 75.55 75.55 75.46 75.6 75.63 75.64 75.76 75.59 75.56 76.92 76.49 75.73 75.7 75.72 75.62 75.69 75.67 75.76 75.82 75.38 73.56 72.19 72.09 72.02 72.03 71.82 71.81 71.93 71.96 71.72 71.75 71.78 71.73 71.55 71.51 71.38 71.2 71.09 71.06 71.79 72.21 72.31 71.91 71.59 71.96 71.85 71.82 71.71 71.85 71.91 71.96 72 72.06 72.06 72.09 71.9 71.78 71.71 71.68 71.68 72.4 72.81 72.33 72.73 72.91 72.92 72.94 72.95 73.03 72.99 73.02 72.24 72.02 72.08 73.57 72.09 72.13 72.14 72.23 72.24 72.6 72.65 72.35 72.06 72.01 71.91 71.84 72.01 72.06 72.11 72.09 72.32 72.9 72.73 72.54 72.93 72.28 72.08 71.99 71.87 71.94 71.86 72 71.95 71.99 72.01 72.02 72.06 72.12 72.24 72.45 72.48 72.39 72.44 72.71 72.49 72.43 72.6 72.45 72.63 72.67 72.51 72.43 72.35 72.44 72.43 72.43 72.15 72 71.91 71.85 71.67 71.81 72.17 72.42 72.43 72.45 72.29 71.98 71.78 71.63 71.43 71.11 70.88 70.74 70.52 70.36 70.11 69.82 69.6 69.33 69.2 68.89 68.58 68.55 67.96 68.47 68.33 67.7 67.55 67.28 67.13 67.05 66.98 65.34 65.18 65.15 65.3 65 64.84 64.59 64.51 64.5 64.33 64.22 64.16 63.69 61.65 61.09 60.52 60.56 60.65 60.45 60.49 60.19 59.88 59.63 59.95 59.42 59.5 59.43 59.39 59.3 59.25 59.16 59.11 59.13 59.11 59.28 59.18 59.12 59.12 59.08 59.08 59.07 58.75 58.67 58.58 58.47 58.42 58.33 58.34 58.22 58.2 58.18 58.14 58.12 58.05 57.88 57.78 57.6 57.59 57.48 57.4 57.3 57.11 56.92 56.79 56.69 56.58 56.54 56.5 56.39 56.23 56.14 56.05 55.96 55.9 55.86 55.77 55.71 55.7 55.72 55.69 55.65 55.58 55.55 55.56 55.56 55.54 55.52 55.51 55.47 55.4 55.41 55.33 55.36 55.32 55.37 55.37 55.37 55.43 55.73 56.09 56.21 56.13 56.04 55.73 55.96 55.85 55.89 55.74 55.7 55.74 55.75 55.81 55.82 55.81 55.83 55.96 56.05 56.1 56.21 56.26 56.29 56.41 56.43 56.53 56.74 56.84 56.95 57.07 57.25 57.34 57.22 57.2 56.98 56.65 56.36 56.14 56.08 55.82 55.73 55.7 55.6 55.72 55.71 55.4 55.39 55.56 55.31 55.12 55.25 55.2 55.17 55.07 55.06 55.32 55.1 55.15 55.14 54.82 54.65 54.66 54.75 54.63 54.5 54.38 54.32 54.53 54.54 54.7 54.9 54.95 55.03 55.03 55.04 55.04 55.13 55.41 55.49 55.39 55.59 55.67 56.17 57.48 57.43 57.91 58.92 57.86 56.34 56.34 56.33 55.7 55.13 54.35 53.93 53.76 53.79 53.69 53.67 53.68 53.69 53.71 53.61 53.71 53.75 53.81 53.77 -9999 -9999 -9999 -9999
-9999 -9999 -9999 -9999 -9999 -9999 -9999 -9999 -9999 -9999 75.69 75.75 75.63 75.53 75.75 76.07 76.1 76.16 76.19 76.12 76.04 76.04 75.84 75.93 76.08 75.95 75.91 75.96 75.99 75.98 76.02 76.03 76.01 75.99 75.97 76.04 76.02 76.04 76.12 75.94 75.87 75.93 75.85 75.89 75.9 75.82 76.04 75.77 75.72 75.73 75.6 75.93 75.9 75.83 75.79 75.82 75.85 75.91 75.84 75.93 76.03 76 75.64 76.04 75.58 75.48 75.55 75.5 75.55 75.63 75.61 75.74 75.65 75.7 75.88 76.82 75.77 75.81 75.81 75.65 75.69 75.67 75.61 75.66 75.52 74.58 72.36 72.21 72.19 72.22 72.17 71.8 71.7 71.92 71.85 71.7 71.63 71.55 71.56 71.46 71.63 71.54 71.23 71.13 71.17 72.12 72.2 72.12 72.02 72.12 72.02 71.88 71.87 71.99 72.08 72.08 71.93 72.09 72.08 72.07 72.06 72.03 71.95 72.8 72.82 72.84 72.8 72.86 72.82 72.96 73.02 73.04 73.25 73.27 73.29 73.28 73.04 73.07 73.08 73.32 73.45 73.54 73.6 72.24 72.24 72.29 72.58 72.63 72.63 72.19 71.93 71.95 72 71.86 72.09 72.16 72.14 72.24 73.13 73.13 73.14 73.33 73.02 72.6 72.3 72.36 71.84 72.08 72.55 72.05 72.05 71.97 72.06 72.09 72.13 72.15 72.18 72.2 72.3 72.41 72.5 72.43 72.48 72.6 72.57 72.6 72.66 72.55 72.42 72.48 72.43 72.42 72.26 72.02 72.01 71.97 71.85 71.92 72.31 72.31 72.61 72.58 72.58 72.44 72.25 72.04 71.92 72 71.52 70.96 70.84 70.57 70.41 70.11 69.85 69.64 69.44 69.2 69.01 68.83 68.63 68.36 68.33 68.18 67.67 67.55 67.22 67.11 67.03 67 65.48 65.25 65.34 65.31 64.99 64.68 64.57 64.54 64.61 64.21 64.09 63.98 63.59 62.88 62.18 62.08 61.84 60.63 60.69 60.7 60.7 60.69 60.69 59.53 59.36 59.46 59.4 59.36 59.32 59.37 59.16 59.13 59.18 59.24 59.23 59.18 59.12 59.14 59.12 59.09 58.87 58.75 58.66 58.52 58.46 58.43 58.3 58.22 58.18 58.2 58.13 58.14 58.05 57.93 57.94 57.8 57.59 57.48 57.37 57.28 57.38 57.08 56.87 56.78 56.66 56.57 56.52 56.41 56.33 56.21 56.11 56.05 55.97 55.92 55.8 55.74 55.69 55.67 55.69 55.64 55.63 55.6 55.55 55.54 55.5 55.5 55.5 55.48 55.44 55.37 55.32 55.28 55.3 55.38 55.3 55.3 55.23 55.29 55.25 55.3 55.35 55.59 55.94 56.06 56.04 55.95 55.88 55.88 55.84 55.86 55.83 55.74 55.81 55.83 55.91 55.91 55.96 55.97 55.98 56.21 56.29 56.38 56.45 56.56 56.66 56.8 56.94 57.04 57.17 57.19 57.21 57.14 56.99 56.8 56.28 56.17 56.1 56.02 56.06 55.8 55.64 55.77 55.71 55.49 55.36 55.43 55.32 55.18 55.16 55.28 55.2 55.08 55.12 55.08 55.28 55.17 55.21 55.06 54.87 54.78 54.84 54.66 54.62 54.59 54.57 54.48 54.38 54.5 54.74 54.85 54.98 55 54.93 54.97 55.03 55.09 55.24 55.36 55.61 55.68 56.05 57.4 57.52 58.25 58.99 56.92 56.42 56.22 56.01 54.59 54.63 54.28 54.05 53.96 53.85 53.66 53.69 53.7 53.77 53.76 53.69 53.72 53.78 53.77 53.75 -9999 -9999 -9999 -9999
-9999 -9999 -9999 -9999 -9999 -9999 -9999 -9999 -9999 -9999 75.62 75.82 75.64 75.48 75.68 76.08 76.07 76.15 76.25 76.11 76.04 76.09 75.9 76.01 76.06 75.96 75.92 75.97 75.89 75.96 76.05 75.99 75.89 75.94 75.93 75.94 75.98 76.16 76.08 76.06 76.12 75.9 75.87 75.89 76.02 75.88 75.6 75.76 75.71 75.71 75.61 75.97 75.9 75.81 75.8 75.92 75.97 75.9 75.91 75.82 75.78 75.64 75.93 76.12 75.84 75.51 75.48 75.4 75.55 75.55 75.75 75.61 75.69 75.6 75.81 75.96 75.82 75.81 75.62 75.56 75.66 75.66 75.66 75.81 75.4 73.61 72.36 72.29 72.29 72.23 71.89 71.8 71.72 71.7 71.76 71.6 71.47 71.57 71.65 71.7 71.42 71.27 71.22 71.18 71.19 72.18 72.35 72.25 72.06 72.17 72.07 72.09 72.01 72.27 72.18 72.14 72.01 72.04 72.14 72.08 72.07 72.06 73.08 72.89 72.87 72.9 72.88 72.91 73.06 73.05 73.14 73.16 73.23 73.29 73.31 73.34 73.4 73.36 73.32 73.25 73.17 73.1 73.19 72.95 72.4 73.07 72.93 72.87 72.65 72.23 72.04 71.99 72.18 71.81 72.06 72.43 72.32 72.61 73.29 73.47 73.47 73.74 73.56 72.82 72.7 72.83 72.82 72.73 72.68 71.98 72.01 72.35 71.86 72.2 72.19 72.2 72.18 72.24 72.26 72.31 72.34 72.44 72.48 72.49 72.57 72.62 72.58 72.63 72.41 72.61 72.57 72.36 72.12 72.16 72.1 72.02 72.06 72.14 72.38 72.7 72.7 72.73 72.71 72.56 72.35 72.22 72.22 72.19 71.33 71.08 70.91 70.69 70.48 70.28 69.95 69.66 69.47 69.21 68.92 68.66 68.48 68.17 67.96 67.81 67.54 67.29 67.19 67.24 67.17 66.81 65.54 65.33 65.45 65.33 65.02 64.7 64.7 64.66 64.47 64.25 64.04 63.96 63.54 63.04 62.45 62 62.04 60.69 60.77 60.75 60.77 60.72 60.72 60.74 59.5 59.48 59.45 59.34 59.29 59.35 59.18 59.16 59.16 59.29 59.26 59.17 59.12 59.05 59.17 59.06 58.85 58.77 58.69 58.56 58.43 58.32 58.28 58.26 58.28 58.21 58.15 58.02 57.99 57.94 57.84 57.8 57.62 57.47 57.35 57.24 57.12 57.06 56.86 56.79 56.67 56.59 56.51 56.43 56.35 56.21 56.11 56.04 55.95 55.87 55.78 55.73 55.68 55.62 55.65 55.6 55.66 55.76 55.6 55.56 55.51 55.5 55.46 55.45 55.38 55.33 55.26 55.25 55.33 55.26 55.32 55.26 55.26 55.29 55.23 55.29 55.29 55.25 55.22 55.24 55.32 55.63 55.9 56.03 55.98 55.99 55.95 56 55.96 55.88 55.9 55.87 55.96 55.99 56.09 56.14 56.24 56.27 56.42 56.69 56.74 56.82 56.88 56.97 57.2 57.11 57.22 57.08 56.77 56.5 56.23 56.17 56.14 56.13 56.06 55.89 55.79 55.85 55.71 55.38 55.41 55.33 55.23 55.16 55.19 55.18 55.22 55.14 55.11 55.12 55.19 55.27 55.13 55.05 55.03 55.03 54.88 54.89 54.92 54.72 54.72 54.75 54.6 54.56 54.5 54.54 54.81 54.84 54.9 54.95 55.08 55.05 55.11 55.26 55.47 55.57 56.07 57.63 57.57 58.64 58.89 57.1 56.4 56.31 55.26 54.29 54.08 53.98 53.81 53.95 53.79 53.8 53.75 53.85 53.86 53.76 53.65 53.84 53.79 53.85 53.81 -9999 -9999 -9999 -9999
-9999 -9999 -9999 -9999 -9999 -9999 -9999 -9999 -9999 -9999 75.68 75.83 75.68 75.5 75.72 76.08 76.13 76.18 76.15 76.12 76.13 76.02 75.89 75.97 76.14 75.92 75.98 75.96 75.96 76.01 75.92 75.96 75.99 76.04 75.92 75.96 76.04 76.13 76.12 76.15 76.08 75.91 75.92 75.89 75.85 75.94 75.8 75.82 75.76 75.77 75.65 75.89 75.86 75.79 75.84 75.88 75.79 75.9 75.85 76.03 75.41 75.56 75.91 75.87 75.65 75.31 75.53 75.51 75.58 75.75 75.81 75.75 75.58 75.66 75.77 75.96 75.89 75.84 75.65 75.62 75.79 75.81 75.8 75.66 74.63 72.55 72.38 72.38 72.39 72.33 72.04 72 71.95 71.84 71.84 72.06 71.7 71.74 71.78 71.92 71.65 71.67 71.78 71.25 72.14 72.28 72.45 72.34 72.26 72.25 72.2 72.13 72.1 72.17 72.22 72.19 72.09 72.13 72.16 72.08 73.02 73.19 73.12 73.02 73.08 73.05 73.07 72.96 73.01 73.06 73.17 73.14 73.24 73.28 73.32 73.36 73.39 73.35 73.33 73.28 73.23 73.16 73.2 73.14 73.22 73.3 73.24 73.06 72.38 72.12 72.16 72.11 72.28 72.24 72.27 72.5 72.4 72.97 73.32 73.5 73.5 73.52 73.53 73.2 73.12 73.3 73.74 73.33 72.88 72.39 72.24 72.44 72.21 72.3 72.56 72.61 72.41 72.35 72.32 72.35 72.33 72.39 72.4 72.41 72.4 72.45 72.58 72.61 72.58 72.6 72.46 72.21 72.28 72.22 72.17 72.21 72.52 72.66 72.8 72.77 72.67 72.74 72.94 72.62 72.48 72.51 72.46 72.15 71.19 71.19 71.28 71.06 71.52 71.45 70.47 69.82 69.61 69.31 69.05 68.77 68.45 68.18 67.88 67.66 67.4 67.16 66.9 66.74 66.48 66.02 65.74 65.48 65.48 65.35 65.03 64.67 64.68 64.7 64.29 64.13 63.95 63.72 63.39 62.81 62.22 62.11 62.11 60.65 60.81 60.83 60.79 60.79 60.78 60.77 59.47 59.48 59.44 59.41 59.41 59.39 59.13 59.25 59.28 59.27 59.21 59.08 59.04 59.03 59.24 58.95 58.83 58.75 58.61 58.47 58.44 58.31 58.33 58.29 58.28 58.13 58.1 58 57.93 57.85 57.73 57.77 57.6 57.46 57.34 57.22 57.05 56.92 56.93 56.81 56.66 56.57 56.49 56.43 56.35 56.26 56.15 55.99 55.95 55.83 55.79 55.77 55.7 55.62 55.64 55.6 55.57 55.54 55.49 55.5 55.62 55.45 55.46 55.42 55.33 55.33 55.23 55.23 55.27 55.27 55.17 55.24 55.29 55.2 55.12 55.13 55.18 55.16 55.18 55.21 55.26 55.33 55.22 55.24 55.29 55.57 56.01 56.21 56.09 56.09 56.08 56.07 56.08 56.08 56.05 56.15 56.26 56.35 56.42 56.51 56.59 56.68 56.83 56.92 57.01 57.13 57.16 57.19 56.62 56.42 56.51 56.32 56.13 56.09 55.99 56.01 55.96 56.19 55.77 55.45 55.61 55.48 55.23 55.33 55.29 55.25 55.26 55.11 55.15 55.17 55.17 55.22 55.08 55.2 55.06 54.91 54.88 54.86 54.84 54.65 54.63 54.66 55.01 54.8 54.7 54.65 54.78 54.77 54.7 54.68 54.71 54.79 54.81 54.86 55.19 55.42 56.38 57.76 57.68 58.75 58.86 58.64 57.69 56.17 54.67 54.24 54.2 54.04 53.8 53.84 54.08 53.99 53.88 53.84 53.8 53.76 53.78 54.1 54.01 53.81 53.72 -9999 -9999 -9999 -9999
-9999 -9999 -9999 -9999 -9999 -9999 -9999 -9999 -9999 -9999 75.87 75.74 75.71 75.5 75.74 76.14 76.11 76.15 76.13 76.15 76.11 76.03 75.94 76 76.05 75.94 76 76.09 75.99 76.04 76 76 75.95 76.02 75.93 75.95 76.09 76.11 76.02 76.2 75.82 75.73 75.73 75.87 75.89 75.89 75.78 75.79 75.82 75.74 75.69 75.86 75.88 75.81 75.93 75.82 75.74 75.96 75.79 75.99 75.48 75.62 75.87 75.52 75.36 75.31 75.4 75.49 75.74 75.68 75.73 75.68 75.53 75.76 75.8 75.9 76.3 75.67 75.71 75.89 75.63 75.69 75.71 75.32 73.36 72.55 72.45 72.45 72.32 72.25 72.09 72.05 72.04 71.94 71.89 72.02 72.01 71.87 71.93 71.99 71.83 72.01 72.02 72.36 72.29 72.57 72.47 72.42 72.35 72.31 72.32 72.21 72.23 72.26 72.37 72.41 72.28 72.28 72.28 73.22 73.16 73.13 73.13 73.12 73.02 73.11 73.13 73.11 73.06 73.09 73.14 73.16 73.28 73.3 73.32 73.32 73.38 73.33 73.28 73.27 73.18 73.19 73.22 73.15 73.26 73.25 73.27 73.23 72.35 72.28 72.2 72.28 72.25 72.33 72.48 72.49 72.61 73.35 73.54 73.58 73.47 73.46 73.56 73.57 73.6 73.56 73.5 73.44 73.06 72.61 72.4 72.41 72.4 72.48 72.67 72.72 72.63 72.34 72.2 72.46 72.47 72.41 72.47 72.48 72.45 72.53 72.57 72.55 72.55 72.44 72.32 72.4 72.28 72.29 72.32 72.52 72.83 72.95 73 73.04 72.95 72.93 72.89 72.65 72.5 72.58 72.48 72.2 71.25 71.3 71.39 71.33 71.27 71.37 70.39 69.96 69.72 69.45 69.17 68.89 68.7 68.33 68.02 67.69 67.4 67.11 66.84 66.63 66.35 66.09 65.87 65.61 65.34 65.3 65.04 64.66 64.65 64.56 64.15 64.03 63.87 63.32 63.27 62.69 62.18 62.06 60.97 60.6 60.84 61.04 60.84 60.83 60.83 60.83 57.63 58.53 59.48 59.52 59.45 59.32 59.22 59.28 59.33 59.2 59.04 59.06 59.01 59 59.08 58.88 58.77 58.63 58.43 58.37 58.34 58.32 58.33 58.26 58.28 58.15 58.11 57.96 57.97 58 57.76 57.62 57.59 57.51 57.3 57.12 57.01 57.1 56.86 56.77 56.67 56.6 56.51 56.44 56.33 56.27 56.18 56.08 56.04 55.95 55.88 55.75 55.69 55.67 55.61 55.57 55.54 55.54 55.5 55.47 55.47 55.41 55.39 55.34 55.33 55.24 55.21 55.27 55.19 55.22 55.19 55.18 55.2 55.17 55.14 55.11 55.1 55.14 55.16 55.2 55.11 55.17 55.03 55 54.94 54.9 54.94 55.13 55.42 55.93 56.25 56.27 56.17 56.21 56.23 56.33 56.33 56.43 56.42 56.56 56.63 56.77 56.86 56.95 57.02 57.11 57.12 57.23 56.68 56.5 56.4 56.32 56.31 56.13 55.97 55.92 55.94 56.02 55.64 55.5 55.51 55.51 55.27 55.35 55.19 55.14 55.12 55.1 55.26 55.24 55.17 55.16 55.17 55.2 55.02 54.83 54.83 54.9 54.78 54.63 54.58 54.6 54.7 54.69 54.67 54.78 54.73 54.87 54.82 54.78 54.82 54.95 54.94 54.86 54.96 55.4 56.38 57.75 57.79 58.89 58.96 58.85 56.32 56.04 54.4 54.1 54.14 53.96 53.75 53.85 54.05 54.05 53.86 53.92 53.91 53.69 53.88 54.03 53.73 53.74 53.73 -9999 -9999 -9999 -9999
-9999 -9999 -9999 -9999 -9999 -9999 -9999 -9999 -9999 -9999 75.89 75.72 75.67 75.59 75.83 76.08 76.18 76.17 76.13 76.12 76.07 76.13 75.99 75.94 76.02 76.01 76.05 76.07 76.01 75.98 76.01 76 75.99 76.01 75.97 76.02 76.02 76.23 76.13 76.15 75.95 75.76 75.79 75.88 75.9 75.96 75.84 75.79 75.81 75.71 75.87 75.91 75.82 75.71 75.88 75.85 75.89 75.96 75.74 75.96 75.63 75.9 75.95 75.63 75.32 75.38 75.35 75.52 75.67 75.6 75.61 75.77 75.59 75.69 75.76 75.9 75.93 75.72 75.69 75.69 75.9 75.86 75.54 74.46 72.69 72.55 72.47 72.51 72.36 72.13 72.04 71.98 71.95 71.93 72.03 71.77 71.81 71.96 71.97 72 72.07 72.02 72.18 72.45 71.02 72.01 72.6 72.51 72.35 72.41 72.39 72.37 72.43 72.31 72.27 72.25 72.27 72.41 72.5 72.53 72.87 73.06 73.09 73.18 73.09 73.19 73.09 73.09 73.16 73.14 73.16 73.21 73.24 73.31 73.35 73.33 73.36 73.32 73.29 73.22 73.27 73.19 73.23 73.15 73.16 73.12 73.17 72.54 72.33 72.38 72.43 72.62 72.73 72.56 72.4 72.51 72.76 73.17 73.48 73.52 73.63 73.6 73.55 73.55 73.63 73.61 73.49 73.48 72.87 72.47 72.35 72.29 72.37 72.53 72.76 72.82 72.57 72.66 72.61 72.74 72.5 72.43 72.52 72.48 72.29 72.69 72.69 72.69 72.7 72.53 72.55 72.38 72.4 72.48 72.55 72.78 72.88 73.03 73.2 73.15 73.1 73.05 72.99 72.84 72.81 72.71 72.39 71.88 71.36 71.44 71.43 71.38 71.31 71.46 70.8 70.33 69.98 69.52 69.21 69.13 68.89 68.62 68.39 67.87 67.63 67.1 67.04 66.67 66.39 66.12 65.86 65.64 65.37 65.15 64.9 64.64 64.38 64.25 64 63.95 63.71 63.05 62.97 62.27 62.12 62.1 61.31 61.1 61.03 60.89 60.94 60.92 60.9 60.35 58.99 59.17 59.34 59.47 59.46 59.33 59.26 59.28 59.28 59.09 58.95 58.97 58.95 58.92 58.8 58.74 58.72 58.59 58.39 58.3 58.28 58.31 58.29 58.26 58.19 58.07 58.1 58.03 58.01 57.78 57.67 57.62 57.54 57.58 57.29 57.15 56.97 56.92 56.78 56.71 56.64 56.56 56.48 56.43 56.36 56.29 56.24 56.12 56.04 55.99 55.9 55.83 55.77 55.71 55.59 55.56 55.52 55.49 55.48 55.43 55.42 55.35 55.34 55.32 55.27 55.2 55.19 55.23 55.18 55.18 55.2 55.21 55.19 55.17 55.13 55.11 55.08 55.09 55.13 55.14 55.16 55.1 54.88 54.8 54.8 54.8 54.84 54.82 54.79 54.85 55.1 55.51 55.89 56.16 56.39 56.43 56.54 56.57 56.7 56.8 56.83 56.81 56.88 56.99 57.06 57.13 57.08 56.85 56.62 56.56 56.49 56.37 56.36 56.16 56 55.93 56.02 55.84 55.51 55.5 55.41 55.36 55.39 55.33 55.14 55.1 55.15 55.03 55.09 55.2 55.12 55.18 55.14 55.28 55.04 54.85 54.84 54.77 54.56 54.54 54.62 54.57 54.6 54.6 54.58 54.59 54.84 54.62 54.69 54.97 54.75 54.76 54.75 54.74 54.84 54.91 56.46 57.82 57.9 58.95 59.04 57.08 56.34 55.28 54.24 54.04 53.92 54.03 53.81 53.93 54 54 54.09 53.98 53.94 53.83 53.82 53.97 53.97 53.72 53.76 -9999 -9999 -9999 -9999
-9999 -9999 -9999 -9999 -9999 -9999 -9999 -9999 -9999 -9999 75.86 75.73 75.73 75.55 75.81 76.14 76.16 76.12 76.14 76.12 76.01 76.04 76.08 75.97 76.07 76.08 76.09 76.06 76.01 76.01 75.96 75.96 76.06 75.96 75.98 76.13 76.07 76.26 76.03 76.05 76.22 75.73 75.79 75.93 75.96 75.81 75.79 75.83 75.84 75.71 75.95 75.85 75.78 75.71 75.98 75.94 75.82 75.86 75.82 76.15 75.62 75.9 75.8 75.64 75.25 75.28 75.5 75.51 75.7 75.61 75.62 75.62 75.69 75.73 75.81 75.97 75.74 75.71 75.87 75.79 75.77 75.74 75.27 73.16 72.72 72.68 72.66 72.76 72.62 72.49 72.18 72 72.01 71.88 71.94 71.99 72 71.88 71.98 72.09 72.05 72.12 72.41 72.39 71.58 71.64 72.58 72.58 72.56 72.47 72.52 73.02 72.92 72.63 72.4 72.35 72.39 72.46 72.36 72.38 72.39 72.53 72.56 72.57 72.81 73.23 73.17 73.1 73.18 73.15 73.12 73.14 73.13 73.18 73.14 73.38 73.36 73.32 73.29 73.25 73.24 73.18 73.2 73.16 73.16 73.16 73.18 72.46 72.41 72.41 72.57 72.97 73.16 72.83 72.89 73.14 73.58 73.31 73.47 73.55 73.58 73.52 73.53 73.46 73.57 73.58 73.54 73.54 72.7 72.54 72.38 72.4 72.58 72.69 72.86 72.83 72.82 72.88 72.96 73.08 72.6 72.78 71.73 72.55 72.56 72.6 72.91 72.74 72.68 72.66 72.49 72.52 72.63 72.95 72.75 72.88 72.98 73.11 73.24 73.06 72.99 72.96 72.97 72.91 73.01 72.83 72.2 71.54 71.44 71.52 71.46 71.35 71.32 71.43 71.25 71.02 70.7 70.24 69.98 69.8 69.35 68.75 68.26 67.92 67.64 67.36 67.13 66.93 66.58 66.24 65.96 65.67 65.39 65.15 64.89 64.61 64.36 64.12 63.85 63.57 63.45 63.21 62.95 62.35 62.2 62.13 61.76 61.42 61.26 60.97 60.96 60.87 60.31 59.54 59.62 59.54 59.59 59.5 59.45 59.29 59.31 59.27 59.32 59.05 58.96 58.9 58.9 58.87 58.79 58.71 58.64 58.45 58.32 58.28 58.29 58.22 58.24 58.22 58.11 58 58.01 58.09 57.99 57.75 57.63 57.54 57.48 57.47 57.28 57.06 56.95 56.82 56.71 56.62 56.57 56.49 56.45 56.37 56.3 56.27 56.21 56.16 56.09 56 55.94 55.87 55.8 55.71 55.67 55.62 55.54 55.5 55.46 55.44 55.36 55.32 55.3 55.29 55.23 55.16 55.21 55.15 55.08 55.1 55.09 55.1 55.07 55.09 55.1 55.1 55.08 55.08 55.09 55.14 55.16 54.99 54.92 54.83 54.75 54.61 54.76 54.74 54.69 54.66 54.68 54.76 55.09 55.32 55.54 55.74 56.2 56.58 56.81 56.85 56.97 56.96 56.96 56.97 57.09 57.15 57.07 56.91 56.59 56.49 56.46 56.46 56.34 56.27 56.19 56.1 56.05 55.84 55.39 55.52 55.35 55.29 55.38 55.37 55.36 55.38 55.13 55.17 55.1 55.2 55.08 55.18 55.19 55.12 55.03 54.8 54.82 54.69 54.48 54.5 54.52 54.45 54.57 54.47 54.67 54.61 54.61 54.57 54.52 54.6 54.83 54.56 54.55 54.56 54.73 54.81 56.58 57.92 58.03 58.88 58.88 56.4 56.37 54.85 54.31 54.12 53.93 53.9 53.86 53.87 54.01 54.11 53.9 53.89 53.93 53.97 53.97 53.87 53.86 53.8 53.72 -9999 -9999 -9999 -9999
-9999 -9999 -9999 -9999 -9999 -9999 -9999 -9999 -9999 -9999 75.85 75.75 75.81 75.6 75.78 76.15 76.23 76.1 76.14 76.15 76.01 76.14 76.11 76.05 75.97 75.98 76.04 75.99 76.06 75.99 75.96 76 76.01 76.03 76.03 76.01 76.09 76.12 75.97 75.97 75.88 75.87 75.8 75.87 75.96 75.58 75.72 75.72 75.78 75.67 75.93 75.89 75.91 75.8 75.98 75.94 75.82 75.94 75.82 75.76 75.66 76.22 75.85 75.48 75.26 75.34 75.56 75.68 75.78 75.74 75.71 75.6 75.77 75.84 75.97 75.82 75.86 75.74 75.75 75.79 75.86 75.69 74.18 72.85 72.71 72.64 72.74 72.73 72.68 72.62 72.46 72.67 72.63 72.04 72.06 72.03 71.97 72.09 72.11 72.15 72.12 72.33 72.72 72.82 72.83 72.78 72.79 72.61 72.64 72.61 73.16 73.24 73.19 73.2 72.99 73.24 72.89 72.7 72.5 72.49 72.49 72.54 72.5 72.49 72.55 72.57 72.62 72.66 72.78 73.29 73.21 73.26 73.24 73.23 73.2 73.17 73.17 73.19 73.2 73.22 73.27 73.21 73.19 73.15 73.15 73.18 72.7 72.49 72.5 72.67 73.12 73.36 73.6 73.4 73.7 74.12 73.71 73.45 73.58 73.67 73.89 73.8 73.82 73.84 73.63 73.44 73.49 73.5 72.7 72.77 72.74 72.58 72.81 73 72.85 72.83 72.8 72.84 72.91 72.93 72.91 72.31 72.92 72.85 72.9 73 72.9 72.83 72.8 72.64 72.6 72.72 72.88 72.92 72.75 72.88 72.68 73.03 73.07 73.01 72.94 72.75 72.85 72.91 72.87 72.83 72.08 71.59 71.57 71.57 71.5 71.44 71.34 71.41 71.26 71.13 70.95 70.92 70.97 70.47 69.58 68.69 68.16 67.72 67.47 67.32 67.18 66.98 66.63 66.3 66.09 65.78 65.58 65.27 64.89 64.54 64.26 64.09 63.82 63.49 63.28 63.05 62.79 62.5 62.26 62.06 61.82 61.67 61.43 61.16 60.99 60.78 60.41 59.6 59.5 59.5 59.42 59.52 59.44 59.27 59.35 59.42 59.28 59.04 58.85 58.85 58.85 58.74 58.73 58.61 58.57 58.37 58.31 58.24 58.2 58.21 58.14 58.14 58.02 58.13 58.09 57.97 57.82 57.7 57.64 57.44 57.41 57.44 57.21 57.08 56.95 56.74 56.66 56.55 56.48 56.43 56.37 56.27 56.28 56.21 56.14 56.09 56.05 55.98 55.94 55.85 55.8 55.77 55.68 55.63 55.58 55.55 55.47 55.38 55.38 55.38 55.29 55.24 55.2 55.12 55.17 55.13 55.12 55.04 55.06 55.05 55.04 55.01 55.06 55.09 55.05 55.06 55.06 55.1 55.09 54.93 54.93 54.83 54.77 54.74 54.74 54.67 54.68 54.66 54.68 54.71 54.72 54.71 54.7 54.92 55.05 55.45 55.86 56.62 57.16 57.1 57.13 57.08 57.12 57.16 56.98 56.85 56.53 56.15 56.04 56.25 56.34 56.26 56.36 56.11 56.07 55.9 55.54 55.52 55.44 55.27 55.58 55.38 55.3 55.18 55.19 55.16 55.15 55.15 55.08 54.99 55.03 55.13 54.99 54.78 54.78 54.68 54.55 54.46 54.4 54.41 54.43 54.56 54.49 54.62 54.57 54.51 54.56 54.55 54.43 54.53 54.38 54.46 54.55 54.54 56.91 58.02 58.1 58.7 58.9 56.38 56.05 54.31 54.44 53.93 53.88 53.83 53.87 53.88 54.19 53.95 53.82 53.94 53.86 53.94 53.96 53.98 53.86 53.82 53.76 -9999 -9999 -9999 -9999
-9999 -9999 -9999 -9999 -9999 -9999 -9999 -9999 -9999 -9999 75.83 75.73 75.87 75.5 75.84 76.21 76.23 76.08 76.14 76.11 75.97 76.16 76.12 76.01 75.95 75.96 76.01 75.96 76.02 75.99 76 76.04 76.02 76.06 76.02 76.07 76.09 76.12 75.99 76.06 75.9 75.82 75.9 75.84 75.87 75.5 75.68 75.73 75.75 75.67 75.94 75.94 75.86 75.86 75.94 75.92 75.84 75.92 75.71 75.59 75.73 75.97 75.77 75.16 75.27 75.41 75.57 75.66 75.75 75.59 75.55 75.72 75.65 75.84 75.91 75.8 75.77 75.79 75.93 75.92 75.7 75.15 73.03 72.85 72.82 72.82 72.89 72.86 72.82 72.77 72.79 72.89 73.08 72.99 72.9 72.08 72.06 72.03 72.25 72.24 72.33 72.78 73.01 72.94 73.02 72.97 72.73 72.79 72.69 72.71 73.41 73.3 73.39 73.45 73.36 73.71 73.56 73.63 73.6 73.07 73.04 72.83 72.73 72.62 72.59 72.58 72.6 72.57 72.58 72.6 72.85 72.8 72.85 73.14 73.21 73.25 73.22 73.2 73.21 73.19 73.26 73.24 73.26 73.17 73.18 73.21 72.67 72.61 72.61 72.79 73.46 73.62 73.68 73.75 73.8 74.12 73.69 73.87 73.7 73.79 73.93 73.92 73.97 73.87 73.84 73.81 73.54 73.55 73.7 73.68 73.59 73.58 73.51 72.94 73.01 73.25 73.15 73.39 72.97 72.98 72.87 72.87 73.04 73.06 73.09 72.99 72.84 72.85 72.75 72.78 72.8 72.83 72.79 72.81 72.84 72.87 72.4 72.83 72.82 72.75 72.73 72.73 72.59 72.47 72.38 72.61 72.14 71.64 71.63 71.69 71.51 71.47 71.33 71.39 71.31 71.21 71.03 70.99 71 70.42 69.53 68.66 68.05 67.65 67.4 67.28 67.11 66.93 66.76 66.43 66.05 65.81 65.72 65.57 65.29 64.86 64.3 64.12 63.85 63.59 63.3 63.02 62.75 62.39 62.19 61.91 61.69 61.44 61.24 61.03 60.82 60.56 60.38 60.17 59.96 59.77 59.53 59.54 59.41 59.29 59.4 59.37 59.24 58.95 58.77 58.84 58.75 58.73 58.63 58.75 58.5 58.26 58.25 58.22 58.16 58.15 58.14 58.11 58.13 58.09 58.05 57.86 57.8 57.67 57.59 57.5 57.39 57.31 57.15 56.99 56.81 56.67 56.58 56.5 56.4 56.35 56.31 56.25 56.19 56.16 56.09 56.05 55.97 55.91 55.88 55.79 55.75 55.72 55.67 55.64 55.6 55.55 55.54 55.43 55.39 55.35 55.31 55.24 55.19 55.13 55.12 55.08 55.09 55.05 55.04 55.06 55.02 55.03 55.02 55.21 55.19 55.12 55.07 55.09 55.04 55.01 54.98 54.92 54.82 54.8 54.75 54.72 54.76 54.73 54.72 54.73 54.67 54.7 54.68 54.67 54.59 54.73 54.92 55.96 57.38 57.31 57.28 57.21 57.13 57.12 57.14 55.82 55.73 55.58 55.86 55.72 55.64 55.68 55.54 55.73 55.8 55.6 55.5 55.57 55.39 55.37 55.4 55.42 55.32 55.24 55.15 55.17 55.16 55.08 55.03 55.08 55.19 55.02 54.9 54.89 54.82 54.7 54.52 54.43 54.38 54.38 54.46 54.5 54.44 54.58 54.54 54.76 54.59 54.61 54.42 54.28 54.36 54.49 54.46 54.64 56.99 58.14 58.26 58.75 58.59 56.49 55.32 54.11 54.2 54.09 53.96 53.79 53.87 53.88 54.06 53.88 53.84 53.8 53.98 53.88 53.87 53.87 53.88 53.84 53.81 -9999 -9999 -9999 -9999
-9999 -9999 -9999 -9999 -9999 -9999 -9999 -9999 -9999 -9999 75.69 75.84 75.8 75.74 75.87 76.14 76.21 76.14 76.11 76.12 75.91 76.07 76.15 76.04 76.11 76.06 75.97 75.95 76 76.05 76.11 76.06 76.06 76.08 76.06 76.04 76.16 76.08 76.16 76.08 75.84 75.86 75.83 75.8 75.79 75.63 75.72 75.72 75.69 75.66 76.16 75.95 75.93 75.96 75.93 75.94 75.87 76.01 75.84 75.65 75.78 75.84 76.18 75.25 75.2 75.39 75.57 75.6 75.78 75.81 75.62 75.76 76.01 76.03 75.85 75.87 75.74 75.87 75.86 75.79 75.58 74.19 72.96 72.91 72.83 72.97 72.95 73 72.93 72.94 73 72.99 73.13 73.3 73.31 72.93 72.86 72.29 72.24 72.37 72.68 72.73 72.8 73.05 73.17 72.93 72.87 72.83 72.87 73.54 73.5 73.48 73.54 73.55 73.6 73.7 73.75 73.73 73.65 73.88 73.76 73.43 73.32 73.24 72.9 72.83 72.82 72.75 72.71 72.65 72.78 72.65 72.7 72.68 72.82 72.88 72.93 72.96 73.26 73.27 73.27 73.24 73.23 73.26 73.37 72.84 72.69 72.68 72.79 73.21 73.46 73.68 74.17 73.89 73.91 73.91 73.81 73.83 73.87 73.82 73.98 74.06 73.95 73.87 73.89 73.83 73.64 73.69 73.67 73.81 73.53 73.54 73.49 73.5 73.57 73.73 73.78 73.62 73.34 73.32 73.05 73.02 73.1 73.12 73.14 72.93 72.9 72.82 72.88 72.92 72.94 72.92 72.81 72.74 72.68 72.72 72.76 72.74 72.81 72.85 72.84 72.69 72.55 72.43 72.23 72.04 71.91 71.72 71.58 71.61 71.48 71.44 71.32 71.38 71.34 71.27 71.04 71.01 70.88 70.2 69.37 68.55 68.06 67.53 67.36 67.13 66.94 66.65 66.42 66.36 66.08 65.81 65.55 65.28 65.1 64.38 64.32 63.9 63.28 63.47 63.25 62.96 62.7 62.46 62.22 61.94 61.7 61.39 61.17 60.96 60.75 60.45 60.24 60.2 59.91 59.72 59.62 59.42 59.27 59.33 59.27 59.32 59.13 58.88 58.76 58.84 58.78 58.74 58.65 58.62 58.41 58.28 58.18 58.16 58.18 58.11 58.14 58.18 58.21 58.1 58.03 57.91 57.81 57.75 57.64 57.53 57.49 57.44 57.13 56.96 56.71 56.6 56.53 56.46 56.37 56.28 56.24 56.18 56.15 56.09 56.03 55.98 55.9 55.86 55.83 55.77 55.67 55.65 55.64 55.57 55.58 55.52 55.5 55.48 55.39 55.31 55.3 55.26 55.21 55.17 55.13 55.14 55.16 55.12 55.02 55.06 55.07 55.04 55.08 55.2 55.19 55.15 55.14 55.13 55.1 55.06 55.04 55.05 55.03 54.94 54.89 54.93 54.82 54.79 54.75 54.75 54.72 54.76 54.68 54.67 54.67 54.65 54.96 56.36 57.47 57.41 57.33 57.12 57.13 57.08 57.16 55.5 55.41 55.33 55.3 55.34 55.37 55.29 55.49 55.17 55.37 55.39 55.44 55.4 55.27 55.41 55.34 55.34 55.27 55.25 55.25 55.17 55.16 55.13 55.07 55.07 55.08 55.03 54.79 54.84 54.81 54.71 54.68 54.64 54.55 54.55 54.43 54.45 54.41 54.5 54.45 54.84 54.69 54.69 54.59 54.31 54.33 54.36 54.37 54.72 57.36 58.24 58.34 58.9 57.67 56.59 54.69 54.15 54.14 53.98 53.97 53.81 53.86 53.86 53.89 53.77 53.86 53.83 54.02 53.85 53.95 53.86 53.85 53.82 53.91 -9999 -9999 -9999 -9999
-9999 -9999 -9999 -9999 -9999 -9999 -9999 -9999 -9999 -9999 75.72 75.88 75.87 75.65 75.91 76.16 76.17 76.15 76.16 76.08 75.92 76.01 76.18 76.04 76.08 76.01 76.01 75.97 76.05 76.03 76.1 76.04 76.12 76.11 76.07 76.12 76.15 76.02 76.15 75.91 75.63 75.79 75.97 76.02 75.89 75.69 75.66 75.74 75.6 75.87 75.96 75.96 75.8 75.94 75.78 75.95 75.95 75.86 75.77 75.7 75.82 75.88 75.55 75.24 75.27 75.08 75.62 75.73 75.82 75.61 75.73 75.83 75.83 75.98 75.92 75.77 75.84 75.83 75.93 75.89 75 73.1 72.98 72.92 72.93 73.01 73.03 73.07 73.03 73.06 73.16 73.03 73.12 73.19 73.2 73.1 72.93 72.86 72.8 72.77 73.7 73.14 73.05 73.15 73.15 72.92 72.97 72.92 73.54 73.62 73.54 73.61 73.62 73.53 73.66 73.75 73.75 72.98 72.67 73.18 73.72 73.42 73.34 73.28 73.37 73.25 73.17 73.09 72.96 73.18 73.02 72.86 72.82 72.76 72.79 72.78 72.78 72.78 72.82 72.95 73.08 73.03 73.35 73.38 73.49 72.82 72.78 72.84 72.96 73.21 73.49 73.65 74.07 73.98 74.02 73.77 73.82 73.84 73.83 73.82 73.85 73.92 73.91 73.91 73.94 73.91 73.7 74 73.9 73.64 73.53 73.52 73.47 73.42 73.62 73.72 73.89 73.86 73.66 73.69 73.84 73.23 73.27 73.39 73.06 72.97 72.93 72.98 73.04 73.09 73.25 73.2 72.93 72.79 72.73 72.67 72.58 72.51 72.45 72.41 72.59 72.58 72.51 72.39 72.25 72.03 71.87 71.73 71.69 71.66 71.43 71.37 71.32 71.23 71.16 71.3 71.02 70.95 70.71 70.24 69.42 69.1 69.07 67.8 67.75 67.35 67.17 66.54 66.2 66.04 65.99 65.82 65.5 65.03 64.7 64.29 64.26 63.66 62.91 62.26 62.01 62.02 62.12 62.21 62.13 61.96 61.67 61.43 61.2 60.99 60.72 60.47 60.23 60 59.78 59.59 59.42 59.3 59.23 59.31 59.23 59.22 59.09 58.91 58.88 58.78 58.77 58.73 58.77 58.78 58.42 58.36 58.3 58.21 58.17 58.14 58.18 58.17 58.19 58.06 58.03 57.93 57.92 57.85 57.76 57.65 57.39 57.23 57.04 56.88 56.67 56.58 56.5 56.43 56.31 56.26 56.2 56.17 56.08 56.04 55.97 55.92 55.86 55.81 55.73 55.7 55.67 55.62 55.55 55.51 55.51 55.46 55.45 55.4 55.36 55.32 55.3 55.28 55.25 55.15 55.18 55.14 55.12 55.13 55.13 55.11 55.12 55.09 55.08 55.14 55.1 55.08 55.12 55.09 55.07 55.02 55.03 55.02 55.02 54.96 54.97 55.01 54.98 54.93 54.91 54.93 54.77 54.76 54.74 54.68 54.73 54.77 55.23 57.01 57.51 57.46 57.37 57.11 57.13 57.17 56.96 55.42 55.29 55.22 55.36 55.37 55.34 55.33 55.33 55.39 55.31 55.31 55.43 55.28 55.28 55.49 55.31 55.29 55.26 55.22 55.17 55.31 55.14 55.13 55.03 55.1 55.08 55.01 54.79 54.8 54.76 54.59 54.7 54.76 54.48 54.5 54.62 54.56 54.54 54.46 54.68 54.8 54.67 54.73 54.4 54.43 54.31 54.37 54.44 55.03 57.77 58.37 58.42 58.73 57.13 56.16 54.51 54.04 53.97 54.04 53.95 53.8 53.8 53.92 53.9 53.84 53.86 53.89 54.05 53.97 53.97 53.87 53.87 53.87 53.96 -9999 -9999 -9999 -9999
-9999 -9999 -9999 -9999 -9999 -9999 -9999 -9999 -9999 -9999 75.76 75.86 75.78 75.71 75.91 76.17 76.16 76.14 76.18 76.08 75.94 76.07 76.25 76.09 76.06 76.01 76.05 76.09 76.12 76.07 76.01 76.06 76.08 76.14 76.19 76.16 76.1 76.1 76.2 75.9 75.76 75.91 75.91 75.82 75.79 75.66 75.68 75.69 75.64 75.94 75.97 75.9 75.91 76.05 75.83 75.86 75.9 75.94 75.81 75.79 75.85 75.77 75.53 75.25 75.22 75.41 75.73 75.88 75.85 75.61 75.91 75.79 75.94 76.03 75.85 75.86 75.83 75.96 75.83 75.53 73.96 73.1 73.02 72.99 73.01 73.16 73.03 73.02 73.04 73.03 72.97 72.97 72.96 72.98 73.11 73.19 73.01 72.89 72.88 73.64 73.7 73.46 73.44 73.34 73.06 73.09 73.01 73.01 73.67 73.67 73.6 73.65 73.72 73.64 73.82 73.81 73.76 72.26 72.15 72.57 73.86 73.68 73.6 73.59 72.93 73.19 73.4 73.29 73.33 73.5 73.8 73.16 73.17 72.99 73.57 72.91 72.94 72.9 72.93 72.94 72.84 72.88 72.93 73.11 72.93 72.9 72.83 73.02 73.37 73.5 73.7 74.16 74.28 74.11 74.09 73.85 73.78 73.84 73.85 73.78 73.78 73.94 73.76 73.73 73.81 73.75 73.66 73.72 73.68 73.64 73.52 73.53 73.56 73.42 73.52 73.73 73.88 73.89 73.57 73.52 73.52 73.5 73.48 73.2 72.95 72.98 72.92 73.09 73.19 73.2 73.39 73.14 72.94 72.83 72.78 72.94 72.86 72.65 72.56 72.49 72.4 72.34 72.28 72.24 72.19 72.08 71.9 71.8 72.42 72.27 72.14 71.48 71.44 71.15 71.2 71.06 70.91 70.83 70.77 70.77 70.37 70.46 70.41 69.36 68.01 67.61 67.19 66.75 66.45 66.17 66.04 65.89 65.55 64.79 64.43 64.19 64.2 63.5 62.6 61.81 61.71 61.75 61.6 61.02 60.73 60.58 60.79 61.01 60.98 60.89 60.72 60.46 60.25 60.03 59.77 59.5 59.41 59.29 59.27 59.25 59.38 59.24 59.03 58.93 58.81 58.81 58.69 58.67 58.67 58.59 58.52 58.47 58.29 58.27 58.19 58.12 58.15 58.25 58.2 58.09 58.02 58.05 57.88 57.94 57.68 57.56 57.37 57.19 57.05 56.92 56.68 56.64 56.48 56.43 56.31 56.24 56.18 56.13 56.03 55.97 55.93 55.9 55.78 55.77 55.69 55.64 55.47 55.45 55.46 55.37 55.43 55.37 55.37 55.35 55.32 55.27 55.24 55.22 55.15 55.12 55.14 55.11 55.03 55.14 55.08 55.07 55.08 55.08 55.11 55.09 55.08 55.07 55.05 55.01 55.02 54.96 54.97 54.96 55 54.9 54.95 54.95 54.95 54.95 54.93 54.93 54.94 54.94 54.98 55.23 55.18 55.11 55.86 57.44 57.51 57.49 57.24 57.13 57.16 57.33 57.12 55.28 55.25 55.11 55.32 55.32 55.28 55.32 55.3 55.3 55.12 55.33 55.38 55.42 55.27 55.36 55.27 55.34 55.26 55.13 55.08 55.07 55.07 55.04 55.21 55.09 55.01 55.01 54.87 54.83 54.66 54.32 54.47 54.49 54.55 54.49 54.59 54.53 54.56 54.53 54.68 54.65 54.67 54.57 54.47 54.42 54.39 54.4 54.46 55.02 58.03 58.49 58.48 58.59 56.84 55.6 54.2 54.02 53.86 53.99 53.83 53.86 53.95 53.86 53.86 53.91 53.92 53.88 53.96 53.95 53.94 53.9 53.88 53.96 53.99 -9999 -9999 -9999 -9999
-9999 -9999 -9999 -9999 -9999 -9999 -9999 -9999 -9999 -9999 75.9 75.89 75.66 75.65 75.92 76.16 76.15 76.19 76.18 76.15 75.98 76.06 76.04 76.01 75.98 76.07 76.09 76.23 76.06 76.03 76.08 76.09 76.05 76.1 76.14 76.12 76.11 76.08 76.13 75.87 75.75 75.85 75.78 75.93 75.52 75.69 75.74 75.71 75.63 76.05 76.03 75.98 75.91 76.01 76.07 75.97 75.89 75.85 75.78 75.76 75.87 75.71 75.42 75.31 75.27 75.57 75.72 75.67 75.78 75.69 76 75.87 76.05 75.91 75.77 75.96 75.83 75.93 75.79 74.95 73.19 73.08 73.07 73.25 73.19 73.23 73.43 73.27 73.28 73.31 73.32 73.3 73.57 73.05 73.09 73.04 72.99 72.96 72.92 73.56 73.67 73.54 73.49 73.21 73.16 73.17 73.16 73.67 73.69 74.38 73.7 73.77 73.81 73.77 73.73 73.75 73.74 73.77 73.72 73.64 73.87 73.96 73.87 73.43 72.15 73.07 73.65 73.56 73.53 73.61 73.75 73.46 73.91 73.16 73.32 73.36 73.18 73.79 73.79 73.76 73.2 72.99 72.99 73 72.95 73.03 73.03 73.14 73.58 73.78 74.02 74.07 74.43 74.1 73.99 73.86 73.82 73.85 73.9 73.8 73.91 73.86 73.65 73.61 73.76 73.75 73.64 73.67 73.63 73.56 73.57 73.57 73.45 73.46 73.6 73.81 73.99 73.87 73.56 73.5 73.47 73.6 73.15 73.12 73.01 72.94 73.05 73.19 73.21 73.31 73.35 73.14 72.97 72.89 73.03 72.92 72.88 72.77 72.63 72.57 72.61 72.4 72.37 72.25 72.16 72.02 71.93 71.95 71.76 71.69 71.5 71.37 71.36 71.27 71.09 70.85 70.87 70.69 70.68 70.58 70.61 70.63 70.62 70.55 67.74 67.62 67.45 67.01 66.75 66.43 66.18 65.84 65.54 65.46 64.25 64.12 64.21 63.24 62.28 61.61 61.54 61.51 61.26 60.82 60.84 60.46 60.5 60.41 60.5 59.91 59.96 60.17 60.09 60.33 60.14 59.66 59.39 59.29 59.22 59.21 59.28 59.19 59.01 58.95 58.88 58.85 58.79 58.73 58.64 58.55 58.47 58.48 58.39 58.28 58.19 58.18 58.2 58.21 58.14 58.11 58 57.93 57.91 57.77 57.53 57.47 57.3 57.16 57.01 56.8 56.69 56.59 56.46 56.4 56.28 56.21 56.17 56.1 56.08 56 55.91 55.87 55.77 55.73 55.65 55.6 55.5 55.37 55.34 55.37 55.28 55.26 55.35 55.28 55.2 55.23 55.16 55.12 55.11 55.08 55.07 55.06 55.06 55.04 55.06 55.06 55.02 55.02 55.04 55.03 55.04 55.02 55.02 54.89 54.91 54.85 54.86 54.87 54.92 54.92 54.89 54.89 54.89 54.9 54.93 54.94 54.99 55.06 55.3 55.75 56.16 56.53 57.02 57.63 57.56 57.48 57.12 57.16 57.1 57.08 56.48 55.25 55.18 55.08 55.12 55.16 55.24 55.24 55.27 55.21 54.89 55 55.28 55.31 55.24 55.28 55.25 55.35 55.17 55.2 55.14 55.02 54.97 54.94 55.03 55.15 55.15 54.96 54.87 54.88 54.74 54.59 54.5 54.42 54.48 54.43 54.47 54.44 54.42 54.55 54.56 54.56 54.62 54.45 54.31 54.42 54.45 54.41 54.43 55.32 58.35 58.62 58.65 57.87 57.53 55.05 54.01 53.99 53.87 53.92 53.84 53.97 54.14 54.1 53.99 54.14 54.06 53.9 53.98 53.92 53.92 53.92 53.87 53.95 54.01 -9999 -9999 -9999 -9999
-9999 -9999 -9999 -9999 -9999 -9999 -9999 -9999 -9999 -9999 75.92 76.02 75.64 75.75 75.95 76.19 76.15 76.22 76.18 76.13 76 76.19 76.1 76.04 76.09 76.01 76.03 76.17 76.11 76.08 76.06 76.08 76.1 76.11 76.1 76.12 76.15 76.07 76.13 75.82 75.79 75.84 75.73 75.97 75.54 75.71 75.76 75.75 75.7 76.08 76.01 75.89 75.93 76.01 76.09 75.97 75.9 75.79 75.78 75.92 75.79 75.58 75.38 75.3 75.35 75.6 75.71 75.87 75.72 75.78 75.9 75.92 75.9 75.82 75.96 75.84 75.84 75.73 75.38 73.85 73.21 73.15 73.36 73.55 73.38 73.36 73.36 73.35 73.34 73.42 73.56 73.75 73.2 72.76 72.77 73.73 73.61 73.54 73.55 73.61 73.56 73.53 73.48 73.27 73.28 73.26 73.32 73.8 73.76 74.5 75.3 74.03 73.84 73.81 73.82 73.88 74.01 73.88 73.85 73.82 73.75 73.85 73.92 73.08 71.81 73.9 73.89 73.83 73.78 73.79 73.76 73.65 73.61 73.31 73.32 73.26 73.6 73.84 73.78 73.77 73.82 73.8 73.77 73.17 73.04 73.07 73.19 73.62 73.84 74.02 74.2 74.26 74.4 74.15 74.11 73.99 73.94 73.88 73.93 73.84 73.93 73.9 73.74 73.6 73.72 73.71 73.6 73.58 73.61 73.56 73.58 73.54 73.54 73.43 73.38 73.65 73.89 73.91 73.74 73.67 73.57 73.47 73.2 73.08 72.93 73 73.21 73.24 73.33 73.33 73.22 73.08 73.02 73.01 72.96 72.91 72.96 72.86 72.8 72.68 72.61 72.4 72.32 72.26 72.18 72 71.88 71.84 71.63 71.46 71.38 71.32 71.18 71.08 70.97 70.85 70.84 70.62 70.59 70.93 70.69 70.96 70.74 70.62 70.15 68.8 67.79 67.26 66.94 67.21 66.5 65.89 65.62 65.9 64.36 64.13 63.89 62.92 62.09 61.46 61.48 61.28 61.15 60.96 60.48 60.31 60.19 60.12 60 59.93 59.77 59.84 59.67 59.73 59.67 59.75 59.52 59.22 59.23 59.13 59.24 59.09 58.92 58.89 58.8 58.75 58.73 58.7 58.63 58.59 58.56 58.45 58.39 58.33 58.26 58.27 58.29 58.2 58.16 58.01 57.93 57.92 57.74 57.59 57.5 57.33 57.24 57.08 56.91 56.76 56.63 56.53 56.4 56.35 56.25 56.18 56.13 56.1 56.08 56.02 56.02 55.92 55.82 55.66 55.63 55.65 55.52 55.44 55.38 55.27 55.33 55.29 55.2 55.14 55.14 55.1 55.08 55.01 55 54.99 55.03 55.02 54.93 54.89 54.92 55.03 54.93 54.98 55.01 54.97 54.99 54.96 54.94 54.74 54.71 54.6 54.56 54.63 54.72 54.74 54.75 54.81 54.82 54.88 54.85 54.87 54.93 55.09 55.5 55.96 56.46 56.96 57.38 57.66 57.56 57.37 57.13 57.14 57.06 56.69 55.81 55.22 55.15 55.13 54.98 55.24 55.18 55.26 55.2 55.21 54.64 54.63 54.83 55.14 55.13 55.23 55.3 55.37 55.23 55.17 55.13 55.05 54.97 54.95 54.99 55.04 55.07 54.88 54.9 54.89 54.63 54.53 54.69 54.54 54.55 54.37 54.44 54.46 54.44 54.51 54.57 54.65 54.56 54.55 54.38 54.33 54.4 54.42 54.5 55.66 58.61 58.7 58.57 57.97 56.71 54.39 54.13 53.94 54.02 53.93 53.87 53.98 53.99 54.15 54.07 54 54.08 53.98 53.95 53.96 53.98 53.94 53.96 53.97 53.96 -9999 -9999 -9999 -9999
-9999 -9999 -9999 -9999 -9999 -9999 -9999 -9999 -9999 -9999 75.95 76 75.61 75.65 76.01 76.22 76.16 76.21 76.22 76.14 75.94 76.18 76.08 76.09 76.1 76.1 76.08 76.13 76.08 76.11 76.09 76.11 76.08 76.09 76.1 76.11 76.2 76.1 76.06 75.81 75.76 75.82 75.79 75.85 75.63 75.69 75.76 75.79 75.9 76.07 75.87 75.91 75.98 75.89 75.98 75.85 75.84 75.82 75.87 76.16 76.14 75.61 75.28 75.28 75.74 75.64 75.48 75.86 75.8 75.8 75.89 75.84 75.83 75.86 75.88 75.99 75.91 75.67 75.54 73.27 73.19 73.16 73.36 73.45 73.52 73.47 73.64 73.53 73.35 73.47 73.59 73.72 72.88 72.75 72.85 73.7 73.59 73.5 73.58 73.59 73.66 73.55 73.4 73.38 73.31 73.37 73.71 73.91 73.76 74.03 74.02 73.98 73.92 74.03 74.01 74.02 74.01 73.9 73.93 73.97 73.97 73.99 74.05 73.92 73.8 73.83 73.88 73.9 73.89 73.88 73.99 73.86 74.26 74.05 73.47 73.63 73.77 73.88 73.89 73.96 73.8 73.8 73.33 73.22 73.16 73.21 73.34 73.85 73.96 74.17 74.29 74.41 74.17 74.11 74.09 74.09 74.08 73.92 73.75 73.79 73.79 73.79 73.78 73.72 73.61 73.63 73.53 73.54 73.6 73.58 73.57 73.57 73.58 73.44 73.34 73.32 73.44 73.73 73.71 73.81 73.63 73.29 73.12 73.07 73.05 73.18 73.37 73.43 73.25 73.19 73.1 73.08 73.06 73.08 73.07 72.96 72.96 72.96 72.85 72.76 72.46 72.38 72.28 72.25 72.17 72.02 71.83 71.79 71.51 71.31 71.29 71.15 71.16 70.98 70.92 70.77 70.64 70.53 70.55 70.71 70.8 70.94 69.89 70.22 70.17 69.23 68.43 67.36 66.85 66.86 66.4 66.92 66.93 66.61 64.23 64.21 63.76 62.82 61.84 61.43 61.33 61.05 60.61 60.72 60.32 60.26 60.14 60.01 59.96 59.88 59.73 59.68 59.59 59.62 59.57 59.61 59.36 59.21 59.17 59.22 59.15 58.96 58.85 58.78 58.73 58.61 58.54 58.54 58.52 58.52 58.5 58.45 58.39 58.36 58.3 58.27 58.24 58.17 58.17 58.01 57.93 57.83 57.74 57.56 57.43 57.35 57.21 57.06 56.82 56.77 56.61 56.49 56.4 56.34 56.18 56.12 56.03 56.13 56.08 55.97 56.08 55.95 55.85 55.68 55.64 55.49 55.5 55.42 55.36 55.27 55.2 55.2 55.2 55.14 55.11 55.06 55 54.96 54.9 54.96 54.93 54.9 54.84 54.82 54.78 54.82 54.95 54.93 54.87 54.91 54.9 54.92 54.89 54.71 54.72 54.53 54.41 54.41 54.45 54.5 54.55 54.57 54.59 54.69 54.72 54.7 54.8 55 55.41 55.95 56.54 57.11 57.54 57.62 57.51 57.38 57.14 57.11 57.2 55.94 55.23 55.18 55.09 55.11 55.1 55.16 55.23 55.11 55.15 54.96 54.66 54.71 54.77 55.1 54.91 54.83 55.38 55.05 55.03 55.04 55.17 55.08 55.08 55.02 55.02 54.94 54.93 54.82 54.87 54.67 54.63 54.55 54.48 54.61 54.56 54.37 54.45 54.56 54.47 54.64 54.65 54.7 54.57 54.6 54.64 54.71 54.63 54.49 54.59 55.94 58.72 58.8 58.76 57.93 55.49 54.2 54.07 54.08 53.96 53.98 53.84 53.9 54.05 54.05 54.12 54.06 54.05 54.04 54.04 54 53.98 53.89 53.9 53.98 53.97 -9999 -9999 -9999 -9999
-9999 -9999 -9999 -9999 -9999 -9999 -9999 -9999 -9999 -9999 75.93 76.01 75.69 75.63 76.05 76.21 76.18 76.19 76.24 76.17 75.94 76.17 76.2 76.14 76.17 76.15 76.14 76.18 76.15 76.16 76.16 76.12 75.88 76.11 76.08 76.14 76.15 76.1 76.19 75.86 75.9 75.84 75.81 75.65 75.61 75.7 75.75 75.76 76.15 75.97 75.89 75.91 75.94 75.9 75.98 75.91 75.98 75.72 75.69 76.08 76.59 75.41 75.37 75.55 76.69 75.22 75.36 75.88 75.72 75.82 75.78 75.78 75.81 76.05 75.97 76 75.93 75.57 74.34 73.27 73.21 73.44 73.63 73.55 73.59 73.86 73.99 73.94 73.95 73.49 73.62 73.75 72.92 72.83 72.98 73.77 73.62 73.53 73.57 73.65 73.55 73.55 73.41 73.45 73.43 73.58 73.88 74.16 74.2 74.02 74.07 74.1 74.07 74.04 74.09 74.12 74.07 74.13 74.13 74.14 74.16 74.17 74.1 74.13 74.12 74.11 74.12 74.04 73.82 73.85 74 74.07 74.26 74.07 73.56 73.77 73.91 73.87 73.84 73.82 73.81 73.75 73.37 73.24 73.19 73.3 73.44 74.19 74.1 74.21 74.33 74.37 74.14 74.14 74.15 74.09 74.14 73.98 73.82 73.84 73.78 73.76 73.76 73.71 73.71 73.6 73.9 73.5 73.55 73.5 73.49 73.52 73.66 73.62 73.37 73.36 73.31 73.53 73.71 73.57 73.75 73.24 73.08 73.05 73.15 73.26 73.34 73.33 73.28 73.22 73.19 73.17 73.14 73.26 73.17 73.07 73.09 72.97 72.78 72.6 72.55 72.41 72.36 72.22 72.23 72.03 71.92 71.61 71.4 71.21 71.07 71.05 70.78 70.63 70.79 70.69 70.57 70.44 70.52 70.71 70.9 71.09 69.39 69.69 69.59 68.84 68.65 68.47 68.57 68.55 68.55 68.54 66.95 65.72 64.33 64.42 63.57 62.6 61.65 61.41 61.34 60.98 60.54 60.35 60.25 60.13 60.08 60.04 59.97 60.01 60.03 59.97 59.68 59.53 59.55 59.51 59.33 59.18 59.05 59.14 59.06 58.92 58.81 58.73 58.6 58.51 58.47 58.48 58.38 58.42 58.45 58.32 58.27 58.28 58.26 58.24 58.25 58.19 58.15 58.07 57.97 57.82 57.68 57.57 57.42 57.33 57.18 57.01 56.91 56.72 56.6 56.48 56.37 56.28 56.16 56.14 56.02 55.92 55.94 55.91 55.99 55.91 55.79 55.69 55.57 55.54 55.48 55.41 55.24 55.24 55.18 55.15 55.13 55.08 55.01 55.03 54.96 54.92 54.89 54.96 54.89 54.79 54.81 54.76 54.71 54.75 54.76 54.86 54.67 54.63 54.77 54.72 54.71 54.53 54.49 54.39 54.32 54.36 54.35 54.37 54.37 54.41 54.37 54.43 54.55 54.59 54.61 54.83 55.31 55.9 56.56 57.13 57.56 57.55 57.48 57.27 57.16 57.18 57.07 55.58 55.11 55.06 55.02 55.11 55.11 55.13 55.2 55.2 55.1 54.76 54.7 54.69 54.81 54.98 54.79 54.76 54.89 54.98 54.98 55.05 54.95 54.88 54.83 54.95 54.98 54.92 54.82 54.74 54.67 54.6 54.52 54.57 54.51 54.4 54.48 54.43 54.58 54.8 54.53 54.7 54.78 54.64 54.66 54.63 54.67 54.63 54.6 54.65 54.77 56.42 58.76 58.85 58.65 57.41 56.06 54.75 54.03 54.06 53.98 53.88 53.92 53.93 53.84 53.96 54.1 54.06 54.04 54.03 54.05 53.97 53.95 53.87 53.89 53.99 53.98 -9999 -9999 -9999 -9999
-9999 -9999 -9999 -9999 -9999 -9999 -9999 -9999 -9999 -9999 76 76.03 75.69 75.61 76.03 76.23 76.12 76.16 76.23 76.16 75.97 76.2 76.17 76.12 76.13 76.15 76.15 76.23 76.14 76.13 76.06 76.14 76.1 76.07 76.13 76.15 76.19 76.18 76.14 76.03 75.86 75.82 75.85 75.68 75.67 75.73 75.73 75.79 76.17 76.02 75.94 75.94 76.01 76.08 76.11 75.91 76.02 75.73 75.77 75.8 75.61 75.53 75.5 75.76 75.66 74.67 75.1 75.79 75.77 75.92 75.84 75.82 76.01 75.9 76.18 76.17 75.78 75.65 73.38 73.31 73.25 73.69 73.99 74.32 74.33 74.16 73.92 73.87 74.12 72.91 73.24 73.74 73.29 73.14 73.87 73.79 73.67 73.7 73.72 73.73 73.64 73.47 73.57 73.46 73.61 73.62 73.9 74.18 74.24 74.21 74.21 74.23 74.19 74.24 74.39 74.34 74.28 74.24 74.2 74.29 74.28 74.26 74.22 74.27 74.18 74.25 74.22 74.25 74.3 74.23 74.11 74.24 74.24 74.07 73.67 73.9 73.93 73.97 73.9 73.85 73.74 73.52 73.38 73.35 73.38 73.64 74.18 74.13 74.24 74.21 74.31 74.14 74.17 74.14 74.14 74.12 74.13 74.05 73.82 73.91 73.83 73.82 73.69 73.7 73.63 73.7 74.95 74.15 73.51 73.56 73.51 73.5 73.51 73.52 73.58 73.49 73.5 73.47 73.59 73.75 73.32 73.18 73.15 73.07 73.28 73.4 73.41 73.36 73.3 73.49 73.52 73.47 73.15 73.25 73.23 73.19 73.2 73.04 72.85 72.66 72.75 72.61 72.6 72.56 72.4 72.19 72.11 71.78 71.54 71.24 71.03 70.84 70.69 70.5 70.36 70.34 70.45 70.34 70.49 70.7 70.8 70.87 70.41 69.35 69.03 68.79 68.54 68.57 68.57 68.57 68.57 68.56 68.54 65.44 64.43 64.21 63.02 62.28 61.59 61.35 61.18 60.75 60.46 60.34 60.21 60.11 60.05 59.96 60.01 59.97 60.02 59.85 59.59 59.41 59.42 59.41 59.26 59.1 59.02 59.1 59.03 58.89 58.82 58.68 58.55 58.53 58.43 58.4 58.42 58.36 58.3 58.26 58.22 58.16 58.15 58.14 58.23 58.26 58.19 58.1 57.98 57.87 57.74 57.61 57.42 57.27 57.16 56.99 56.82 56.69 56.57 56.47 56.35 56.24 56.14 56.09 56.02 55.91 55.84 55.85 55.94 55.87 55.75 55.65 55.56 55.45 55.47 55.36 55.27 55.16 55.23 55.15 55.15 55.07 55.05 54.98 54.91 54.87 54.85 54.95 54.83 54.74 54.74 54.77 54.73 54.7 54.71 54.81 54.63 54.53 54.53 54.52 54.54 54.47 54.53 54.44 54.24 54.32 54.27 54.21 54.34 54.4 54.35 54.38 54.4 54.48 54.49 54.61 54.7 55.13 55.87 57.01 57.62 57.53 57.4 57.2 57.13 57.08 57.57 56.13 55.05 55.07 55.05 55 55.22 55.16 55.15 55.19 55.14 54.84 54.56 54.57 54.81 54.9 54.75 54.66 54.88 54.92 55.03 54.94 54.57 54.44 54.52 54.91 54.74 54.71 54.8 54.71 54.67 54.57 54.58 54.53 54.51 54.47 54.42 54.42 54.6 54.85 54.66 54.78 55.01 54.72 54.15 54.62 54.58 54.57 54.62 54.81 54.77 57.2 58.83 58.92 58.4 55.97 54.8 54.45 54.19 53.92 53.89 53.86 53.92 53.96 53.92 53.94 54.02 53.98 53.99 54 54.04 53.94 53.95 53.87 53.9 53.99 53.89 -9999 -9999 -9999 -9999
-9999 -9999 -9999 -9999 -9999 -9999 -9999 -9999 -9999 75.89 75.98 76.03 75.73 75.63 76.11 76.18 76.16 76.19 76.24 76.16 75.94 76.19 76.13 76.06 76.15 76.23 76.13 76.19 76.16 76.15 76.18 76.18 76.12 76.13 76.12 76.13 76.2 76.14 75.9 75.79 75.79 75.83 75.9 75.59 75.69 75.78 75.74 75.8 76.09 75.95 75.96 75.98 76.07 76.08 76.07 76.05 76.03 75.76 75.75 75.66 75.56 75.55 75.73 75.86 75.81 75.75 75.82 75.82 75.77 75.81 75.86 75.95 75.91 76.47 76.83 75.89 75.63 73.5 73.35 73.32 73.61 73.81 74.04 74.21 74.08 74.06 73.81 73.88 73.95 73.83 73.73 73.63 73.65 73.8 73.8 73.84 73.89 73.98 73.77 73.75 73.7 73.63 73.58 73.67 73.82 73.95 74.07 74.14 74.14 74.16 74.23 74.24 74.21 74.27 74.38 74.41 74.33 74.31 74.41 74.51 74.44 74.29 74.39 74.47 74.29 74.41 74.4 74.42 74.54 74.53 74.46 74.36 74.04 73.92 73.76 73.81 73.88 73.96 74.01 74 73.96 73.57 73.44 73.33 73.58 74.02 74.03 74.27 74.34 74.36 74.35 74.16 74.1 74.09 74.1 74.11 74.13 74.12 74.02 74.03 73.92 73.82 73.65 73.71 73.61 73.58 73.75 73.49 73.51 73.54 73.53 73.64 73.54 73.53 73.47 73.51 73.49 73.52 73.54 73.56 73.28 73.22 73.13 73.3 73.45 73.48 73.4 73.37 73.6 73.6 73.52 73.38 73.27 73.36 73.23 73.2 73.12 73.11 72.9 72.71 72.88 72.75 72.73 72.63 72.56 71.88 71.65 71.64 71.65 71.51 70.96 70.86 70.73 70.55 70.32 70.31 70.33 70.32 70.5 70.78 70.99 70.96 70.27 69.38 68.96 68.43 68.4 68.47 68.58 68.57 68.58 68.52 68.48 64.73 64.65 63.63 61.9 61.53 61.45 61.4 60.85 60.45 60.21 60.13 60.16 60.06 60.08 60.04 59.91 59.88 59.77 59.7 59.58 59.49 59.37 59.29 59.17 59.04 59.03 59.09 58.92 58.83 58.76 58.69 58.6 58.48 58.37 58.37 58.43 58.3 58.28 58.25 58.18 58.07 58.15 58.24 58.26 58.26 58.23 58.07 57.87 57.85 57.66 57.57 57.45 57.26 57.14 57.02 56.8 56.62 56.49 56.43 56.32 56.21 56.11 56.05 56.01 55.9 55.84 55.8 55.88 55.83 55.7 55.57 55.48 55.44 55.38 55.31 55.32 55.2 55.13 55.09 55.07 54.99 54.99 54.92 54.88 54.81 54.86 54.85 54.79 54.72 54.75 54.66 54.68 54.66 54.73 54.7 54.51 54.42 54.56 54.48 54.47 54.44 54.39 54.31 54.2 54.24 54.25 54.13 54.17 54.14 54.28 54.37 54.37 54.46 54.51 54.5 54.61 54.9 55.53 57.21 57.51 57.5 57.44 57.19 57.09 57.12 56.73 55.52 55.07 55.09 55.05 55.07 55.2 55.18 55.14 55.04 55.11 54.58 54.57 54.57 54.84 54.9 54.67 54.65 54.81 54.91 54.95 54.88 54.55 54.48 54.46 54.79 54.81 54.74 54.54 54.54 54.52 54.65 54.57 54.54 54.47 54.44 54.39 54.52 54.61 54.59 54.71 54.83 55.03 54.82 54.68 54.59 54.52 54.46 54.59 54.66 55.13 58.18 58.88 58.95 57.57 55.05 54.14 54.23 53.9 53.85 53.84 53.88 53.99 53.95 53.93 53.87 53.79 53.82 53.96 53.93 53.93 53.94 53.86 53.82 53.91 53.94 53.89 -9999 -9999 -9999 -9999
-9999 -9999 -9999 -9999 -9999 -9999 -9999 -9999 -9999 75.85 76 75.85 75.73 75.62 76.1 76.2 76.15 76.19 76.28 76.16 75.92 76.37 76.14 76.14 76.16 76.16 76.16 76.22 76.23 76.17 76.17 76.14 76.16 76.16 76.12 76.16 76.03 76.05 75.75 75.72 75.82 75.71 75.79 75.54 75.73 75.79 75.69 76.15 76.06 75.97 76.02 76.03 75.89 75.97 75.99 76.02 75.8 75.79 75.85 75.8 75.57 76.01 75.96 75.91 75.77 75.82 75.8 75.96 75.83 75.87 75.98 75.92 76.07 76.77 76.63 76.16 75.73 73.46 73.4 73.47 73.77 74.02 74.28 74.25 74.01 73.98 73.94 73.9 73.75 73.84 73.71 73.6 73.67 73.91 73.76 73.78 73.98 73.97 73.91 73.8 73.63 73.73 73.69 73.81 73.71 73.98 74.08 74 74.06 74.24 74.32 74.29 74.34 74.44 74.45 74.56 74.46 74.33 74.39 74.38 74.35 74.33 74.39 74.62 74.93 74.94 74.92 74.74 74.54 74.53 74.51 74.51 74.18 73.97 73.82 73.81 73.8 73.83 73.85 73.82 73.67 73.53 73.55 73.6 73.93 74.06 74.16 74.3 74.4 74.41 74.09 74.1 74.1 74.07 74.12 74.1 74.16 74.13 74.08 74.07 73.78 74.07 73.94 74 73.82 73.8 73.71 73.66 73.76 73.67 73.66 73.57 73.46 73.46 73.48 73.54 73.52 73.46 73.51 73.3 73.22 73.17 73.2 73.35 73.5 73.45 73.48 73.57 73.7 73.67 73.61 73.36 73.31 73.36 73.21 73.15 72.85 72.85 72.86 72.76 72.85 72.9 72.87 72.75 72.46 71.66 71.26 71.2 71.3 71 70.92 70.93 70.92 70.65 70.7 70.67 70.53 70.52 70.83 71.12 70.98 70.96 70.01 69.2 68.78 68.17 68.2 68.44 68.58 68.54 68.55 68.55 65.77 64.69 64.86 63.59 61.58 61.5 61.4 61.21 60.66 60.39 59.84 60.04 59.97 59.93 59.97 59.88 59.82 59.81 59.77 59.63 59.47 59.47 59.34 59.25 59.1 59 59.08 58.93 58.73 58.65 58.78 58.61 58.57 58.43 58.43 58.43 58.32 58.33 58.34 58.2 58.11 58.03 58.13 58.18 58.25 58.34 58.24 57.93 57.75 57.86 57.81 57.4 57.36 57.21 57.1 56.94 56.78 56.59 56.44 56.33 56.26 56.15 56.06 55.99 55.96 55.9 55.81 55.73 55.8 55.83 55.69 55.54 55.47 55.47 55.35 55.26 55.22 55.26 55.16 55.1 55.1 55.01 54.99 54.86 54.82 54.77 54.86 54.85 54.78 54.72 54.66 54.62 54.57 54.63 54.79 54.61 54.42 54.38 54.36 54.32 54.36 54.38 54.26 54.17 54.16 54.13 54.14 54.11 54.17 54.16 54.26 54.35 54.21 54.42 54.52 54.44 54.57 54.73 55.85 57.34 57.42 57.41 57.35 57.13 57.1 57.13 56.16 55.37 55.17 55.16 55.09 55.16 55.17 55.14 55.07 55.02 54.88 54.54 54.57 54.57 54.82 54.78 54.93 54.87 54.91 54.91 54.88 54.8 54.55 54.46 54.44 54.71 54.81 54.63 54.22 54.28 54.23 54.59 54.59 54.54 54.48 54.41 54.42 54.59 54.53 54.59 54.72 54.79 54.83 54.72 54.73 54.51 54.47 54.51 54.39 54.52 56.07 58.97 58.93 59.03 56.66 54.29 54.07 53.95 53.78 53.98 53.94 53.83 53.98 54 53.92 53.93 54 53.94 53.88 53.99 53.93 53.94 53.9 53.79 53.84 53.95 53.86 -9999 -9999 -9999 -9999
-9999 -9999 -9999 -9999 -9999 -9999 -9999 -9999 -9999 75.89 75.99 75.71 75.73 75.45 76.13 76.2 76.2 76.2 76.25 76.18 75.94 76.17 76.08 76.12 76.18 76.12 76.2 76.17 76.21 76.16 76.2 76.19 76.14 76.14 76.16 76.15 76.11 75.99 75.76 75.87 75.81 75.83 75.66 75.7 75.87 75.75 75.76 76.15 76.02 75.99 76 76.1 75.97 75.93 75.94 75.91 75.69 75.85 75.79 76 75.74 76.66 76.35 76.03 75.75 75.89 75.82 75.88 75.82 76.01 75.97 76.06 76.9 76.7 76.45 75.96 73.57 73.44 73.41 73.6 73.67 73.94 74.12 73.91 74 74.02 74.05 73.99 73.99 73.98 74.05 73.79 73.71 73.84 73.7 73.93 73.93 73.93 73.92 73.8 73.78 73.64 73.79 74.03 74.29 74.44 74.53 74.26 74.22 74.44 74.49 74.41 74.49 74.63 74.57 74.68 74.6 74.39 74.34 74.37 74.33 74.39 74.4 74.94 74.94 74.91 75.07 75.16 74.86 74.79 74.86 74.72 74.67 74.48 74.1 73.98 73.92 73.99 74.02 74 73.79 73.62 73.55 73.77 73.91 74.06 74.32 74.32 74.37 74.27 74.1 74.15 74.11 74.12 74.14 74.13 74.16 74.14 74.25 73.99 73.86 73.89 73.98 74.04 73.91 73.86 73.8 73.76 73.79 73.73 73.68 73.54 73.49 73.52 73.54 73.6 73.71 73.56 73.38 73.25 73.28 73.18 73.34 73.49 73.54 73.53 73.87 74.23 73.95 74.13 73.51 73.34 73.4 73.41 73.23 73.14 72.88 72.9 72.91 72.71 72.62 72.73 72.73 72.79 72.23 71.41 70.96 70.96 71.03 70.87 70.88 70.9 70.88 70.66 70.82 70.77 70.61 70.67 70.92 70.99 70.98 70.77 69.69 68.96 67.95 67.93 68.23 68.08 67.76 68.04 68.56 65.63 65.44 64.81 64.93 63.2 61.53 61.52 61.39 61.05 60.64 59.18 58.89 58.92 59.06 59.66 59.93 59.87 59.55 59.36 59.35 59.31 59.29 59.23 59.19 59.22 59.01 58.95 59 58.76 58.53 58.46 58.54 58.61 58.52 58.4 58.31 58.28 58.26 58.29 58.25 58.26 58.12 58.06 58.14 58.31 58.25 58.3 58.2 58 57.64 57.57 57.49 57.43 57.26 57.14 56.99 56.85 56.71 56.55 56.42 56.3 56.17 56.09 56.05 55.98 55.91 55.86 55.82 55.74 55.76 55.8 55.65 55.47 55.41 55.36 55.3 55.25 55.15 55.11 55.06 55.04 55.13 54.98 54.91 54.82 54.79 54.72 54.91 54.87 54.66 54.65 54.65 54.59 54.54 54.59 54.71 54.5 54.31 54.24 54.22 54.3 54.29 54.21 54.15 54.05 54.01 54.02 54.1 54.12 54.07 54.2 54.36 54.37 54.47 54.3 54.33 54.33 54.52 54.79 56.18 57.39 57.44 57.4 57.28 57.1 57.05 56.97 55.7 55.26 55.2 55.12 55.1 55.13 55.21 55.13 55.14 55.11 54.65 54.55 54.6 54.78 54.8 54.87 54.76 54.75 55.01 55.03 54.79 54.6 54.59 54.45 54.68 54.76 54.74 54.42 54.04 54.2 54.11 54.56 54.58 54.63 54.61 54.65 54.57 54.61 54.66 54.66 54.73 54.72 54.8 54.65 54.76 54.71 54.53 54.55 54.54 54.68 57.18 58.97 59.01 58.63 55.77 54.12 54.11 53.87 53.94 54.04 53.99 53.79 53.99 53.99 53.96 54.03 54 53.95 54.04 54.07 53.87 53.97 53.88 53.8 53.86 53.88 53.88 -9999 -9999 -9999 -9999
-9999 -9999 -9999 -9999 -9999 -9999 -9999 -9999 -9999 75.91 75.96 75.71 75.74 75.67 76.14 76.21 76.15 76.19 76.2 76.21 75.98 76.18 76.21 76.19 76.16 76.14 76.17 76.16 76.25 76.24 76.27 76.22 76.19 76.21 76.21 76.16 76 75.89 75.8 75.91 75.75 75.91 75.68 75.84 75.83 75.83 75.91 76.17 76.12 76.03 76.04 75.98 76.11 76.2 75.97 75.86 75.83 75.87 75.89 75.94 75.95 76.26 75.99 75.96 76.07 76.16 76.93 75.82 75.87 75.89 75.95 76.52 76.73 76.53 76.22 75.87 73.56 73.52 73.52 73.63 73.75 73.81 73.88 73.62 74 74.02 74.2 74.02 74.09 74.07 74.05 73.85 73.86 73.87 73.94 73.95 73.99 73.96 73.88 73.81 73.81 73.84 74.01 74.19 74.37 74.52 74.53 74.59 74.47 74.45 74.5 74.51 74.58 74.51 74.51 74.7 74.67 74.53 74.45 74.46 74.42 74.4 74.43 74.73 74.71 74.97 74.74 74.9 74.86 74.8 74.98 74.89 74.78 74.74 74.56 74.51 74.56 74.09 74.22 73.93 73.75 73.69 73.78 73.87 74.02 74.11 74.2 74.14 74.35 74.11 74.09 74.17 74.16 74.15 74.17 74.12 74.18 74.41 74.17 73.96 73.89 73.94 73.91 73.87 73.95 73.91 73.87 73.81 73.7 73.78 73.74 73.62 73.54 73.56 73.64 73.61 73.71 73.51 73.36 73.23 73.24 73.26 73.46 73.64 73.58 73.56 72.84 72.13 72.1 73.63 73.57 73.59 73.46 73.31 73.21 73.14 72.82 72.89 72.98 72.63 72.58 72.6 72.61 72.55 71.83 71.15 70.88 70.91 70.91 70.87 70.84 70.87 70.87 70.73 70.84 70.85 70.55 70.59 70.78 69.79 68.84 69.35 69.21 68.33 67.7 67.73 67.88 67.77 67.39 66.83 66.11 65.64 65.15 65.21 64.78 62.38 61.66 61.56 61.24 60.8 60.55 59 58.93 58.88 58.9 58.89 58.94 59.02 59.17 59.14 59.19 59.24 59.13 59.1 59.2 59.07 58.97 58.9 58.96 58.65 58.49 58.39 58.35 58.38 58.48 58.4 58.25 58.21 58.15 58.19 58.03 58.28 57.92 58.01 58.17 58.45 58.38 58.21 58.2 57.65 57.49 57.41 57.47 57.31 57.17 57.04 56.89 56.83 56.65 56.51 56.37 56.24 56.12 56.03 55.99 55.9 55.84 55.82 55.76 55.72 55.72 55.75 55.62 55.47 55.36 55.33 55.27 55.19 55.14 55.08 55.03 55.07 55.03 55.01 54.88 54.82 54.8 54.72 54.86 54.72 54.63 54.61 54.58 54.49 54.53 54.55 54.65 54.32 54.21 54.15 54.19 54.04 54.07 54.12 54.01 53.96 53.88 53.9 53.93 54 54.05 54.07 54.34 54.39 54.31 54.3 54.25 54.41 54.52 55.06 56.84 57.43 57.42 57.28 57.14 57.03 57.03 56.64 55.8 55.18 55.18 55.16 54.99 55.06 55.1 55.09 55.13 55.08 54.64 54.56 54.64 54.68 54.69 54.74 54.79 54.76 54.85 54.89 54.84 54.82 54.59 54.49 54.6 54.86 54.66 54.15 53.99 54.01 54.46 54.58 54.61 54.67 54.68 54.73 54.71 54.68 54.67 54.65 54.68 54.79 54.75 54.42 54.77 54.8 54.79 54.72 54.79 55.24 58.19 59 59.06 57.5 54.87 54.18 53.96 54 54 54.03 54 53.79 53.93 53.96 53.96 54.3 54.09 54.08 54.14 54.12 54.06 53.99 53.88 53.75 53.83 53.93 53.93 -9999 -9999 -9999 -9999
-9999 -9999 -9999 -9999 -9999 -9999 -9999 -9999 -9999 75.92 75.93 75.71 75.73 75.64 76.14 76.21 76.21 76.2 76.24 76.22 75.95 76.23 76.3 76.17 76.17 76.15 76.18 76.16 76.24 76.23 76.2 76.18 76.23 76.24 76.16 76.16 76.18 76.01 75.97 75.91 75.98 75.83 75.59 75.75 75.79 75.85 76.09 76.07 76.03 75.98 76.04 75.97 76.09 75.92 75.97 75.9 75.88 75.83 75.86 75.91 75.96 75.9 75.97 76 76.24 75.97 75.87 75.9 75.96 75.84 76.33 76.79 76.69 76.34 76.15 73.63 73.55 73.6 73.61 73.6 73.7 73.67 73.7 73.8 73.86 73.91 74.18 74.05 74.07 74.13 74 73.96 73.99 73.95 73.98 74.06 74.05 74.06 73.89 73.95 73.83 73.97 74.17 74.28 74.41 74.37 74.52 74.48 74.32 74.32 74.37 74.51 74.76 74.59 74.53 74.64 74.6 74.54 74.48 74.49 74.5 74.5 74.55 74.45 74.44 75 74.49 74.95 74.94 74.97 74.98 74.86 74.94 74.67 74.7 74.64 74.55 74.34 74.1 73.95 73.81 73.71 73.96 74.33 74.35 74.42 74.4 74.25 74.26 74.17 74.18 74.14 74.19 74.16 74.15 74.16 75.03 74.46 74.23 73.99 73.96 73.93 74.02 73.99 73.92 73.83 73.79 73.85 73.75 73.87 73.68 73.64 73.61 73.67 73.66 73.64 73.62 73.46 73.3 73.35 73.29 73.41 73.7 73.7 73.55 73.51 72.89 72.22 72.81 72.33 72.4 72.25 72.24 72.27 72.71 73.2 72.97 72.74 72.85 72.5 72.48 72.48 72.55 72.4 71.71 71.02 70.87 70.79 70.99 70.94 70.95 70.91 70.86 70.9 70.9 70.91 70.47 70.48 70.53 69.27 68.15 68.04 67.94 67.81 67.55 67.5 67.7 67.56 67.2 66.61 66.11 65.54 65.49 65.38 63.74 61.81 61.67 61.44 61.27 60.62 60.33 58.98 58.99 59.09 58.97 58.94 58.91 58.9 58.92 58.94 58.97 59.11 59.08 59.12 59.21 59.04 58.95 59.02 58.86 58.61 58.44 58.36 58.29 58.25 58.28 58.26 58.25 58.12 58.05 58.06 57.83 57.79 57.87 57.93 58.02 58.05 58.09 58.14 58.02 57.63 57.41 57.26 57.23 57.17 57.07 56.97 56.75 56.66 56.56 56.43 56.34 56.27 56.15 56.04 56.07 55.84 55.81 55.77 55.7 55.67 55.6 55.72 55.61 55.48 55.34 55.28 55.22 55.16 55.12 55.14 55.04 55.05 55.04 54.87 54.81 54.77 54.74 54.76 54.75 54.65 54.59 54.57 54.54 54.52 54.47 54.54 54.55 54.24 54.23 54.13 54.1 54.13 54.12 54.03 54.04 54.03 53.98 53.97 53.87 53.89 53.93 54.09 54.34 54.25 54.2 54.22 54.19 54.31 54.31 55.39 57.14 57.39 57.39 57.23 57.08 57.04 56.99 56.43 55.75 55.28 55.38 55.16 55.24 55.11 55.13 55.24 55.13 55.03 54.68 54.69 54.67 54.77 54.92 54.81 54.72 54.81 54.83 54.79 54.65 54.5 54.58 54.59 54.58 54.63 54.69 54.42 54.23 54.11 54.64 54.53 54.66 54.68 54.75 54.72 54.71 54.54 54.59 54.65 54.83 54.84 54.74 54.73 54.78 54.79 54.8 54.91 54.81 56.13 59.14 59.07 59.14 56.66 54.38 54.38 54.17 54.12 54.02 54.1 53.9 53.94 53.89 54.07 54.05 54.12 54 54.13 54.16 54.18 54.08 54.01 53.87 53.78 53.86 53.86 53.94 -9999 -9999 -9999 -9999
-9999 -9999 -9999 -9999 -9999 -9999 -9999 -9999 -9999 75.94 75.88 75.8 75.68 75.63 76.16 76.21 76.2 76.23 76.21 76.2 76.01 76.31 76.12 76.21 76.19 76.16 76.22 76.19 76.21 76.17 76.18 76.25 76.2 76.22 76.13 75.99 76.12 75.79 75.84 75.97 75.87 75.9 75.68 75.7 75.74 75.86 76.11 76.07 75.93 76.02 76.04 75.9 75.98 76.02 75.94 75.87 75.84 75.82 75.91 75.88 75.92 75.85 75.88 75.9 75.88 76.05 75.96 76.35 76.04 75.8 75.96 76.61 76.53 76.17 74.92 73.58 73.63 73.59 73.61 73.65 73.71 73.72 73.7 73.7 73.73 73.75 73.83 73.88 73.95 73.94 73.98 74.09 74.02 74.03 74.04 74.13 74.12 73.97 73.99 73.93 74 74.22 74.3 74.39 74.45 74.49 74.43 74.31 74.32 74.35 74.45 74.57 74.66 74.5 74.47 74.56 74.62 74.67 74.68 74.63 74.61 74.59 74.67 75.08 74.75 74.96 74.35 75.01 75.03 75.11 74.94 74.75 74.71 74.6 74.51 74.69 74.64 74.36 74.09 73.91 73.9 73.94 74.15 74.28 74.32 74.3 74.37 74.45 74.39 74.54 74.52 74.42 74.43 74.42 74.31 74.21 74.64 74.41 74.36 74.17 74.02 74.03 73.95 73.89 73.94 73.94 73.92 73.85 73.76 73.65 73.74 73.62 73.65 73.67 73.71 73.66 73.55 73.29 73.37 73.29 73.42 73.51 73.7 73.58 73.51 73.57 72.88 72.26 72.63 72.82 72.56 72.33 72.49 72.51 72.41 72.37 72.65 72.78 72.68 72.43 72.3 72.17 72.04 72.11 71.41 70.79 70.78 70.8 70.92 70.91 70.89 70.9 70.92 70.96 70.81 70.82 70.6 70.57 70.54 69.84 68.65 67.98 67.86 67.67 67.52 67.34 67.2 67.29 67.02 66.37 65.97 65.94 65.74 65.36 63.02 61.75 61.68 61.3 61.02 60.5 59.22 58.93 58.93 58.96 58.98 59 59.11 58.97 58.95 58.91 58.91 58.95 59.07 59.16 59.19 58.99 58.9 58.94 58.71 58.58 58.43 58.38 58.27 58.13 58.08 58.08 58.07 58.1 57.94 57.79 57.69 57.74 57.82 57.82 57.85 57.83 57.93 57.81 57.62 57.49 57.36 57.18 57.03 56.94 56.93 56.87 56.73 56.6 56.48 56.39 56.25 56.2 56.03 56.03 55.92 56.01 55.79 55.66 55.64 55.65 55.57 55.64 55.58 55.46 55.37 55.28 55.16 55.08 55.13 55.03 54.97 55.01 55.1 54.83 54.78 54.73 54.71 54.8 54.68 54.61 54.57 54.52 54.49 54.48 54.7 54.6 54.45 54.26 54.26 54.14 54.13 54.03 54.01 54.1 54.03 53.99 54.02 53.91 53.92 53.85 53.88 53.88 54.13 54.13 54.07 54.09 54.09 54.15 54.22 55.87 57.23 57.32 57.31 57.15 56.95 57.06 56.99 55.89 55.12 55.15 55.31 55.15 55.31 55.37 55.17 55.26 55.22 54.97 54.61 54.62 54.65 54.79 54.78 54.77 54.77 54.79 54.86 54.77 54.67 54.69 54.51 54.56 54.52 54.55 54.45 54.4 54.72 54.41 54.57 54.64 54.68 54.66 54.71 54.75 54.59 54.55 54.57 54.84 54.83 54.89 54.78 54.77 54.83 54.98 54.86 54.83 54.9 57.33 59.12 59.1 58.62 55.78 54.23 54.04 54.21 54.26 54.2 54.19 53.88 53.99 54 54.02 54.11 54.05 54.24 54.18 54.24 54.03 54.14 54.01 53.85 53.79 53.9 53.95 53.91 -9999 -9999 -9999 -9999
-9999 -9999 -9999 -9999 -9999 -9999 -9999 -9999 -9999 75.88 75.74 75.86 75.61 75.65 76.17 76.24 76.18 76.24 76.29 76.16 76 76.22 76.11 76.16 76.16 76.16 76.18 76.22 76.22 76.28 76.19 76.26 76.25 76.23 76.18 75.91 76.12 75.91 75.85 75.97 75.84 75.73 75.67 75.74 75.88 75.96 76.2 76.1 76.06 76.04 76.06 76.11 75.98 75.91 75.88 75.89 75.84 75.87 75.87 75.9 75.86 75.94 75.91 75.92 76 76.02 75.98 75.91 75.81 75.95 75.91 75.94 76.13 75.97 73.72 73.64 73.55 73.8 73.79 73.75 73.76 73.74 73.75 73.72 73.74 73.77 73.82 73.81 73.81 73.8 73.8 73.91 73.95 73.99 73.99 74.08 74.09 74.01 74.04 74.04 74.33 74.28 74.38 74.43 74.47 74.5 74.45 74.32 74.37 74.37 74.58 74.59 74.54 74.65 74.72 74.57 74.58 74.65 74.62 74.52 74.54 74.68 74.84 74.96 74.93 74.83 74.88 74.79 75.03 75.11 74.99 74.71 74.57 74.54 74.58 74.65 74.49 74.26 74.13 74.01 73.92 74.14 74.23 74.35 74.5 74.36 74.36 74.35 74.37 74.38 74.41 74.41 74.37 74.65 74.57 74.57 74.48 74.48 74.42 74.13 74.1 74.15 74 73.91 73.85 73.84 73.82 73.82 73.85 73.75 73.63 73.63 73.78 73.7 73.7 73.68 73.46 73.39 73.34 73.4 73.49 73.61 73.72 73.54 73.48 73.58 72.63 72.36 72.83 72.98 72.72 72.45 72.67 72.66 72.61 72.68 72.38 72.73 72.64 72.53 72.29 72.11 71.96 71.91 71.71 71.09 71.08 70.88 70.95 70.93 70.89 70.89 71.05 70.88 70.74 70.61 70.63 70.6 70.58 70.16 69.18 68.31 68.91 68.06 67.59 67.61 67.33 66.93 66.69 66.49 66.29 65.88 65.72 64.55 62.44 61.87 61.44 61.04 60.52 60.44 58.98 58.91 58.88 58.89 58.94 58.92 58.96 58.98 58.99 59.08 58.98 58.98 59.09 59.22 59 58.95 58.85 58.92 58.7 58.55 58.4 58.31 58.15 58.04 58 58.06 58.26 57.96 57.88 57.8 57.7 57.75 57.73 57.94 57.68 57.69 57.68 57.36 57.42 57.37 57.23 57.05 56.97 56.89 56.86 56.76 56.65 56.48 56.42 56.34 56.21 56.21 56.1 55.96 55.88 55.79 55.73 55.69 55.62 55.55 55.48 55.55 55.53 55.45 55.32 55.22 55.11 55.04 54.97 55.02 55.01 55.09 54.95 54.85 54.73 54.71 54.66 54.82 54.63 54.55 54.54 54.52 54.46 54.38 54.43 54.58 54.33 54.24 54.22 54.05 54.11 54.12 54.02 54.01 53.96 54 53.98 53.94 53.95 53.9 53.89 53.85 54.3 54.36 54.26 54.17 54.11 54.18 54.34 56.39 57.23 57.33 57.25 57.03 57.05 57.1 56.48 54.82 54.85 54.97 54.9 54.87 54.93 54.93 54.84 55.19 55.33 54.64 54.58 54.58 54.66 54.39 54.73 54.72 54.85 54.88 54.8 54.66 54.7 54.73 54.82 54.63 54.53 54.47 54.39 54.43 54.43 54.37 54.39 54.44 54.4 54.59 54.71 54.7 54.64 54.68 54.62 54.84 54.84 54.84 54.52 54.71 54.83 54.85 54.86 54.97 55.34 58.38 59.19 59.07 57.76 55.06 54.16 54.12 54.1 54.12 54.12 54.1 53.85 53.97 54.08 54.08 54.16 54.17 54.38 54.24 54.26 54.2 54.09 54.01 53.8 53.9 53.93 53.98 54.18 -9999 -9999 -9999 -9999
-9999 -9999 -9999 -9999 -9999 -9999 -9999 -9999 -9999 75.93 75.74 75.84 75.59 75.55 76.2 76.23 76.23 76.23 76.3 76.21 75.98 76.3 76.1 76.18 76.1 76.2 76.22 76.18 76.19 76.25 76.18 76.23 76.18 76.12 76.2 76.14 75.96 75.8 75.98 76.02 75.91 75.71 75.7 75.72 75.87 76 76.14 76.02 76 76.08 76.05 76.14 76.15 75.97 75.98 75.89 75.87 75.87 75.89 75.92 75.9 75.92 75.92 75.96 75.97 76.04 76.1 76.09 75.88 75.86 75.84 76.05 75.96 74.26 73.66 73.61 73.72 73.92 74.08 73.91 73.95 73.7 73.9 73.88 73.83 73.89 73.79 73.72 73.79 73.84 73.86 73.89 73.93 73.94 73.92 73.93 73.97 74.09 74.06 74.16 74.22 74.33 74.47 74.47 74.46 74.44 74.46 74.45 74.45 74.45 74.57 74.58 74.55 74.52 74.56 74.49 74.62 74.62 74.64 74.58 74.54 74.71 74.87 74.89 74.85 74.8 74.8 74.81 74.87 74.97 74.89 74.65 74.51 74.66 74.66 74.58 74.47 74.25 74.11 74.05 74.19 74.23 74.36 74.45 74.35 74.44 74.47 74.38 74.37 74.38 74.37 74.45 74.45 74.55 74.57 74.53 74.53 74.42 74.37 74.24 74.25 74.31 74.25 74.11 73.97 73.93 73.96 73.99 73.51 73.85 73.62 73.68 73.74 73.72 73.74 73.55 73.38 73.44 73.32 73.5 73.66 73.78 73.5 73.6 73.45 73.63 73.74 73.81 73.55 73.05 72.83 72.6 72.4 72.38 72.5 72.76 72.82 72.69 72.62 72.47 72.21 72.12 72.08 72.02 71.94 71.74 71.53 71.28 71.32 71.2 71.03 70.98 71 70.95 70.8 70.65 70.6 70.59 70.59 70.08 69.35 68.44 69.28 68.95 67.85 68.58 67.92 67.18 67.06 66.75 66.11 65.82 65.39 63.54 62.74 61.88 61.33 60.55 60.4 60.33 58.99 59.03 59.04 58.93 58.92 58.87 58.88 58.92 58.94 58.97 58.98 59.01 59.09 59.22 58.99 58.92 59.04 58.82 58.69 58.58 58.42 58.29 58.16 58.03 58.01 58.19 58.45 58.02 57.69 57.67 57.72 57.7 57.57 57.54 57.5 57.6 57.37 57.29 57.26 57.17 57.08 57.04 56.85 56.83 56.79 56.66 56.51 56.42 56.37 56.29 56.17 56.13 56.05 55.98 55.89 55.83 55.7 55.65 55.59 55.63 55.43 55.5 55.5 55.4 55.27 55.13 55.02 55.02 55.02 54.99 55.05 54.92 54.85 54.77 54.7 54.66 54.65 54.79 54.59 54.53 54.53 54.5 54.42 54.42 54.47 54.53 54.27 54.19 54.1 54.04 53.98 53.95 53.97 53.89 54.01 53.95 53.97 53.93 53.88 53.85 53.91 54.13 54.52 54.53 54.46 54.41 54.35 54.36 54.79 56.9 57.33 57.3 57.16 56.74 57.07 57.01 55.72 54.75 54.76 54.77 54.78 54.87 54.91 54.84 54.84 54.82 54.74 54.68 54.58 54.59 54.71 54.75 54.72 54.85 54.65 55.04 54.71 54.83 54.79 54.73 54.63 54.55 54.49 54.54 54.52 54.45 54.35 54.3 54.35 54.35 54.61 54.71 54.72 54.63 54.67 54.88 54.66 54.89 54.81 54.8 54.68 54.82 54.82 54.84 54.86 54.89 56.29 59.21 59.17 59.13 56.89 54.52 54.08 53.97 53.96 54.02 54.04 53.98 53.94 53.94 54.11 54.1 54 54.28 54.33 54.29 54.28 54.28 54.16 53.97 53.8 53.94 54 54.03 53.98 -9999 -9999 -9999 -9999
-9999 -9999 -9999 -9999 -9999 -9999 -9999 -9999 -9999 75.88 75.76 75.9 75.56 75.62 76.17 76.24 76.2 76.27 76.24 76.18 75.99 76.3 76.1 76.18 76.07 76.19 76.17 76.17 76.21 76.18 76.2 76.15 76.19 76.21 76.06 76.08 76.03 75.88 75.97 75.96 75.86 75.84 75.92 75.84 75.94 76.13 76.05 75.99 75.99 76.04 76 76.05 76.08 76.14 75.96 75.82 75.91 75.92 76.03 75.94 75.95 75.93 75.94 75.96 75.97 75.96 76.03 76.1 76.03 75.72 75.58 75.69 75.4 73.91 73.74 73.79 73.86 73.91 74 73.92 73.86 73.9 74 73.94 74.02 73.82 74.07 73.89 74.12 73.98 73.91 73.9 73.79 73.91 73.94 74.02 74.1 74.12 74.12 74.09 74.07 74.12 74.17 74.2 74.27 74.29 74.34 74.53 74.53 74.59 74.54 74.59 74.54 74.54 74.58 74.54 74.65 74.65 74.63 74.63 74.55 74.72 74.97 74.92 74.8 74.76 74.72 74.77 74.9 74.93 74.87 74.68 74.54 74.66 74.76 74.54 74.47 74.26 74.22 74.16 74.29 74.21 74.58 74.51 74.59 74.62 74.48 74.61 74.37 74.42 74.45 74.48 74.47 74.46 74.41 74.44 74.37 74.33 74.33 74.29 74.36 74.54 74.46 74.21 73.94 73.95 73.97 73.98 73.5 73.62 73.66 73.72 73.75 73.88 73.71 73.49 73.43 73.39 73.51 73.52 73.8 73.61 73.74 73.63 73.55 73.51 73.77 73.83 73.72 73.26 72.79 72.66 72.69 72.67 72.4 72.07 72.81 72.73 72.58 72.48 72.2 72.21 72.08 71.95 71.85 71.7 71.56 71.55 71.46 71.39 71.29 71.19 71.13 70.96 70.8 70.69 70.6 70.62 70.59 70.14 69.29 69.65 69.44 69.07 68.14 68.04 67.75 67.37 67.02 66.75 65.9 65.07 64.29 63.63 62.5 61.21 60.64 60.55 60.35 59.26 58.96 58.96 58.99 59 59.02 59.12 58.96 58.93 58.88 58.92 58.95 59.11 59.16 59.2 58.98 58.85 59 58.8 58.62 58.53 58.38 58.26 58.16 58.06 58.02 58.37 58.4 57.85 57.56 57.61 57.5 57.54 57.54 57.39 57.36 57.41 57.16 57.09 57.05 56.99 57.05 56.86 56.79 56.8 56.69 56.59 56.45 56.35 56.32 56.24 56.18 56.07 55.98 55.93 55.85 55.68 55.66 55.7 55.63 55.43 55.34 55.43 55.47 55.38 55.2 55.06 55.01 54.96 54.98 54.94 54.93 54.88 54.92 54.78 54.7 54.67 54.7 54.79 54.59 54.54 54.49 54.46 54.43 54.51 54.54 54.37 54.13 54.07 53.98 53.86 53.81 53.86 53.82 53.8 53.91 54.03 54.03 53.96 53.95 54.08 54.3 54.42 54.79 54.59 54.53 54.49 54.66 54.62 55.55 57.22 57.28 57.28 57.09 56.96 57.08 56.92 55.92 54.84 54.79 54.63 54.8 54.81 54.87 54.84 54.89 54.86 54.68 54.52 54.59 54.63 54.78 54.77 54.83 55.19 54.71 54.68 54.75 54.76 54.74 54.6 54.6 54.66 54.68 54.52 54.51 54.54 54.5 54.41 54.46 54.5 54.64 54.62 54.65 54.61 54.65 54.7 54.73 54.75 54.75 54.87 54.76 54.77 54.84 54.81 54.99 54.94 57.33 59.14 59.18 58.94 56.22 54.23 54.04 54.15 54.16 54.21 54.04 53.94 53.99 54.24 54.42 54.37 54.08 54.24 54.3 54.31 54.19 54.08 54.27 53.95 53.79 54.13 54.07 54.01 54.06 -9999 -9999 -9999 -9999
-9999 -9999 -9999 -9999 -9999 -9999 -9999 -9999 -9999 75.9 75.89 75.95 75.59 75.61 76.22 76.24 76.25 76.27 76.27 76.23 75.96 76.24 76.09 76.16 76.14 76.13 76.15 76.14 76.17 76.24 76.24 76.2 76.24 76.2 75.95 76.06 75.9 75.89 75.82 75.88 75.97 76 75.97 76.09 75.99 76.17 76.16 75.99 76.06 76.14 76.1 76.1 76.01 75.95 76.05 75.95 75.89 76 75.92 75.96 76.01 75.98 75.98 76.01 75.99 76.08 76.07 75.99 75.69 75.43 75.4 75.11 74.04 73.82 73.72 74.08 74.03 74 74.04 74.06 73.83 73.81 73.93 73.81 73.82 73.48 73.8 73.92 74.07 73.94 74.21 74.27 74.03 74.19 74.15 74 74.09 74.03 74.1 74.08 74.11 74.12 74.15 74.16 74.17 74.16 74.18 74.21 74.3 74.41 74.42 74.46 74.47 74.61 74.59 74.58 74.69 74.6 74.59 74.66 74.56 74.69 74.93 74.88 74.83 74.9 74.9 74.94 74.89 74.84 74.73 74.56 74.65 74.81 74.75 74.63 74.4 74.24 74.2 74.32 74.4 74.37 74.61 74.6 74.56 74.72 74.53 74.59 74.48 74.53 74.6 74.57 74.68 74.57 74.57 74.5 74.51 74.48 74.43 74.41 74.37 74.58 74.51 74.23 74 73.94 73.92 73.97 73.81 73.76 73.74 73.75 73.78 73.78 73.58 73.48 73.45 73.5 73.6 73.61 73.68 73.61 73.67 73.59 73.56 73.52 73.2 73.71 73.32 72.96 72.66 73.01 72.86 72.9 72.86 72.87 72.76 72.74 72.74 72.39 72.23 72.09 72.03 72.01 71.8 71.67 71.55 71.48 71.37 71.29 71.18 71.16 71.05 70.8 70.67 70.61 70.69 70.53 70.4 70.15 69.47 69.72 69.23 68.98 68.44 68.36 67.86 67.36 66.89 66.19 65.52 64.87 64.19 63.61 62.06 60.83 60.64 60.51 60.24 58.96 58.93 58.91 58.91 58.94 58.95 58.97 58.98 58.99 59.04 58.96 58.95 59.12 59.21 58.99 58.94 58.8 59.04 58.99 58.6 58.47 58.26 58.26 58.12 58.06 58.05 58.51 58.21 57.63 57.51 57.55 57.48 57.49 57.47 57.4 57.29 57.21 57.03 56.99 56.96 56.85 56.81 56.71 56.78 56.75 56.63 56.46 56.35 56.28 56.16 56.19 56.09 56.03 55.94 55.86 55.8 55.75 55.74 55.59 55.52 55.56 55.29 55.38 55.44 55.33 55.18 55.07 54.94 54.92 54.88 54.85 55 54.94 54.8 54.73 54.63 54.66 54.75 54.67 54.54 54.55 54.49 54.43 54.44 54.49 54.47 54.23 53.97 53.95 53.96 53.79 53.81 53.75 53.79 54.02 53.91 54.08 53.99 53.82 53.82 53.84 54.06 53.96 54.18 54.13 53.91 53.88 54.42 54.61 56.09 57.16 57.24 57.16 56.96 57.05 57.04 56.88 55.56 55.47 55.17 55 54.78 54.83 54.84 54.83 54.76 54.73 54.63 54.6 54.57 54.57 54.78 54.91 55 54.89 54.74 54.44 54.69 54.72 54.61 54.52 54.64 54.7 54.59 54.61 54.51 54.46 54.42 54.49 54.57 54.6 54.77 54.57 54.79 54.66 54.7 54.73 54.75 54.77 54.76 54.7 54.75 54.64 54.7 54.91 54.96 55.4 58.56 59.27 59.18 58.03 55.33 54.02 54.02 54.15 54.07 54.2 53.91 53.82 54.03 54.31 54.22 54.3 54.29 54.18 54.22 54.34 54.33 54.18 54.01 53.93 53.81 53.94 54.17 54.11 53.98 -9999 -9999 -9999 -9999
-9999 -9999 -9999 -9999 -9999 -9999 -9999 -9999 -9999 75.68 75.83 75.75 75.67 75.63 76.22 76.21 76.25 76.27 76.3 76.21 75.97 76.17 76.05 76.27 76.11 76.19 76.24 76.15 76.15 76.17 76.21 76.23 76.23 76.13 76 75.99 75.88 75.9 75.95 75.98 75.94 76.13 76.15 76.2 75.99 76.14 76.03 76.08 76.13 76.08 76.13 76.16 75.93 75.99 75.99 75.92 76.01 76.02 75.95 75.93 75.99 76.06 76.08 76 76.02 76.08 76.07 75.68 75.26 74.9 74.45 74.64 74.1 73.85 74.14 74.22 74.13 74.09 74.07 74.09 74.16 73.84 73.83 73.93 73.89 73.15 73.53 73.86 74 73.89 74 74.27 74.44 74.22 74.12 74.1 74.05 74.14 74.31 74.29 74.27 74.23 74.22 74.18 74.17 74.15 74.21 74.24 74.3 74.27 74.32 74.31 74.28 74.32 74.41 74.44 74.51 74.5 74.31 74.63 74.56 74.69 74.88 74.84 74.82 74.84 74.96 75.01 74.84 74.74 74.69 74.77 74.69 74.79 74.61 74.6 74.45 74.36 74.35 74.39 74.4 74.49 74.55 74.58 74.57 74.64 74.59 74.69 74.57 74.75 74.64 74.62 74.6 74.62 74.65 74.62 74.59 74.63 74.7 74.55 74.48 74.55 74.45 74.24 74.02 73.81 73.79 73.83 73.83 73.82 73.86 73.86 73.83 73.71 73.46 73.52 73.47 73.62 73.57 73.75 73.65 73.56 73.65 73.59 73.66 73.55 73.3 73.44 73.08 72.73 72.46 73.04 73.04 72.97 72.96 72.9 72.85 72.81 72.65 72.53 72.23 71.88 71.81 71.81 71.74 71.6 71.53 71.44 71.37 71.31 71.2 71.17 70.97 70.76 70.56 70.3 70.45 70.39 70.28 70.09 69.77 69.62 69.26 68.9 68.74 68.63 68.24 67.62 67.05 66.08 65.36 64.83 64.4 62.64 61.44 60.96 60.02 60.42 59.55 59 59.02 58.97 58.93 58.91 58.91 58.93 58.94 58.95 58.95 58.99 59.04 59.2 59.23 58.94 58.89 58.99 58.93 58.86 58.84 58.43 58.28 58.18 58.13 58.02 58.07 58.52 57.92 57.49 57.45 57.48 57.43 57.4 57.35 57.31 57.32 57.15 57.06 56.92 56.81 56.72 56.7 56.67 56.73 56.64 56.5 56.34 56.29 56.21 56.21 56.13 56.04 55.97 55.79 55.81 55.77 55.7 55.62 55.58 55.44 55.41 55.27 55.31 55.34 55.32 55.1 55.02 54.91 54.86 54.76 54.81 55.01 55.11 54.8 54.71 54.64 54.6 54.7 54.55 54.52 54.52 54.46 54.47 54.46 54.51 54.34 54.05 53.88 53.8 53.81 53.75 53.74 53.45 53.47 53.71 53.81 53.88 53.73 53.66 53.62 53.62 53.72 53.7 53.73 53.34 53.21 53.2 53.7 54.87 56.62 57.17 57.24 57.03 56.68 57.01 56.99 55.96 54.43 54.42 54.38 54.61 54.79 54.7 54.93 54.73 54.76 54.68 54.6 54.6 54.55 54.67 54.52 54.9 55.1 55.05 54.45 54.66 54.61 54.62 54.85 54.68 54.66 54.77 54.62 54.53 54.5 54.52 54.34 54.5 54.37 54.59 54.69 54.72 54.71 54.75 54.73 54.78 54.67 54.7 54.91 54.06 54.63 54.6 54.62 54.61 54.67 56.49 59.22 59.29 59.26 57 54.69 54.08 54.2 54.13 54.03 54.06 54.11 53.79 54.32 54.63 55.06 55.04 54.53 54.08 54.38 54.38 54.34 54.15 54.08 53.93 53.8 53.92 53.95 53.91 54.09 -9999 -9999 -9999 -9999
-9999 -9999 -9999 -9999 -9999 -9999 -9999 -9999 -9999 75.72 75.79 75.71 75.87 75.63 76.2 76.24 76.27 76.25 76.3 76.21 75.94 76.23 76.1 76.2 76.15 76.12 76.14 76.15 76.18 76.26 76.24 76.24 76.2 76.11 75.98 75.95 75.84 76.04 76.06 76.09 76.2 76.25 76.28 76.09 76.23 76.12 76.03 76.06 76.15 76 76.14 76.02 76.03 76.03 75.97 75.96 76.03 76.05 76.05 75.96 76.01 76.02 76 76.05 76.06 76.13 75.95 75.41 74.95 74.52 74.38 74.19 74 73.89 74.41 74.29 74.01 73.74 73.74 74.09 74.13 74.17 73.84 73.79 73.86 74.04 73.87 73.78 73.77 73.79 74.08 74.28 74.47 74.24 74.07 74.1 74.14 74.21 74.29 74.28 74.39 74.47 74.45 74.44 74.45 74.42 74.42 74.33 74.33 74.27 74.28 74.34 74.35 74.36 74.39 74.37 74.32 74.33 74.38 74.45 74.52 74.58 74.63 74.69 74.78 74.9 75.01 74.98 74.88 74.83 74.71 74.8 74.81 74.76 74.71 74.57 74.44 74.42 74.49 74.49 74.51 74.56 74.62 74.65 74.58 74.6 74.62 74.59 74.61 74.6 74.7 74.77 74.68 74.65 74.69 74.63 74.6 74.86 74.73 74.71 74.5 74.58 74.45 74.16 73.92 73.83 73.81 73.76 73.84 73.88 73.81 73.85 73.87 73.6 73.53 73.5 73.62 73.61 73.72 73.62 73.6 73.54 73.59 73.53 73.57 73.65 73.36 73.22 73.02 72.76 72.91 73.13 73.1 72.96 72.88 72.88 72.76 72.82 72.68 72.52 72.42 71.9 71.74 71.6 71.52 71.44 71.37 71.33 71.29 71.31 71.22 71.2 70.93 70.68 70.62 70.56 70.42 70.3 70.21 70 69.82 69.64 69.23 69.09 69.12 68.66 68.19 67.55 66.89 65.95 65.44 64.89 63.8 61.62 61.43 59.7 59.43 59.23 59.04 59 58.91 58.94 58.98 59.03 59.03 58.89 58.9 58.91 58.94 58.97 59.1 59.25 59.19 58.93 58.86 58.86 58.96 58.84 58.65 58.59 58.25 58.19 58.09 58 58.19 58.46 57.73 57.44 57.47 57.39 57.38 57.31 57.24 57.27 57.19 57.19 57.09 56.91 56.88 56.69 56.65 56.69 56.65 56.52 56.48 56.4 56.23 56.18 56.14 56.14 56.01 55.96 55.87 55.81 55.72 55.65 55.58 55.49 55.46 55.35 55.29 55.22 55.31 55.25 55.14 54.94 54.89 54.83 54.75 54.69 54.93 54.84 54.8 54.71 54.66 54.62 54.68 54.5 54.5 54.48 54.41 54.47 54.48 54.4 54.08 54.03 53.8 53.8 53.8 53.7 53.5 53.41 53.42 53.45 53.54 53.64 53.63 53.61 53.45 53.63 53.83 53.91 53.3 53.3 53.01 53.03 53.81 55.12 57 57.17 57.22 56.95 56.74 56.97 57.01 55.56 54.39 54.29 54.28 54.4 54.5 54.5 54.53 54.61 54.59 54.68 54.48 54.49 54.54 54.76 54.82 54.9 54.95 54.85 54.56 54.62 54.59 54.57 54.7 54.62 54.65 54.66 54.69 54.46 54.67 54.49 54.22 54.31 54.32 54.64 54.8 54.91 54.75 54.73 54.68 54.67 54.61 54.75 54.7 54.68 54.69 54.64 54.66 54.7 55.1 57.54 59.3 59.28 58.84 56.21 54.2 54.05 54.15 54.1 54.09 54.07 53.88 53.74 54.33 54.94 55.55 55.51 54.83 54.12 54.21 54.28 54.25 54.31 54.07 54.04 53.88 53.87 53.92 53.95 53.87 -9999 -9999 -9999 -9999
-9999 -9999 -9999 -9999 -9999 -9999 -9999 -9999 -9999 75.68 75.8 75.59 75.55 75.6 76.27 76.28 76.23 76.29 76.29 76.23 75.96 76.19 76.16 76.15 76.12 76.15 76.17 76.18 76.21 76.24 76.23 76.13 76.16 76.06 75.9 75.96 75.8 76.08 76.04 76.1 76.31 76.33 76.34 76.17 76.3 76.12 76.06 76.05 76.18 76 76.06 75.94 76 76.06 75.97 75.94 76.02 75.99 76.08 75.99 76 76.08 76.02 76.12 76.22 76.15 75.62 75.12 74.76 74.39 74.35 74.18 73.98 74.21 74.45 74.48 74.2 73.91 73.62 73.47 74.03 74.11 74.34 74.02 74.02 74.1 74.08 73.9 73.78 74.1 74.14 74.22 74.41 74.03 74.14 74.13 74.22 74.34 74.25 74.28 74.39 74.55 74.48 74.55 74.48 74.47 74.4 74.41 74.45 74.51 74.47 74.45 74.47 74.46 74.39 74.39 74.35 74.37 74.37 74.46 74.49 74.48 74.5 74.51 74.54 74.59 74.67 74.71 74.73 74.87 74.87 74.83 74.84 74.85 74.76 74.64 74.56 74.58 74.62 74.71 74.65 74.61 74.67 74.67 74.69 74.66 74.67 74.66 74.68 74.71 74.72 74.62 74.59 74.62 74.61 74.51 74.59 74.68 74.65 74.55 74.57 74.49 74.38 74.15 74.2 73.97 73.93 73.91 73.89 73.97 73.97 73.86 73.68 73.59 73.54 73.52 73.71 73.64 73.82 73.63 73.53 73.56 73.54 73.41 73.43 73.61 73.31 73.31 73.1 72.95 72.88 73 73.05 72.86 72.98 72.9 72.75 72.78 72.7 72.57 72.32 71.98 71.83 71.74 71.67 71.63 71.53 71.41 71.33 71.17 71.13 71.08 71.12 70.73 70.72 70.77 70.52 70.3 70.4 70.14 69.88 69.69 69.31 69.18 68.82 68.42 68.13 67.55 66.76 66.04 65.65 64.69 62.33 61.47 61.47 59.54 59.44 59.28 59.14 59.03 58.93 58.93 58.88 58.94 58.95 58.92 59.01 58.91 58.93 58.95 59.19 59.26 59.07 58.93 58.81 58.95 58.95 58.78 58.76 58.75 58.44 58.05 57.96 57.92 58.36 58.27 57.55 57.44 57.41 57.3 57.33 57.24 57.19 57.13 57.07 57.01 57.03 56.94 56.83 56.71 56.64 56.63 56.53 56.43 56.35 56.25 56.27 56.24 56.04 56.04 55.93 55.85 55.87 55.81 55.7 55.6 55.69 55.73 55.37 55.33 55.26 55.16 55.23 55.22 55.11 54.96 54.87 54.78 54.75 54.7 54.89 54.79 54.7 54.65 54.64 54.66 54.55 54.53 54.52 54.54 54.58 54.54 54.4 54.14 53.91 53.88 53.83 53.78 53.58 53.47 53.41 53.2 53.28 53.36 53.39 53.47 53.51 53.78 54.04 53.87 53.58 53.38 53.24 53.15 53.14 53.29 54.04 55.57 57.07 57.16 57.18 56.96 56.92 57.04 56.95 54.88 54.34 54.33 54.35 54.47 54.43 54.47 54.55 54.58 54.56 54.53 54.55 54.54 54.64 54.8 54.9 54.94 54.92 54.83 54.6 54.59 54.52 54.61 54.75 54.53 54.31 54.44 54.5 54.57 54.69 54.59 54.26 54.36 54.31 54.68 54.74 54.75 54.79 54.82 54.83 54.57 54.51 54.49 54.56 54.67 54.69 54.59 54.66 54.71 55.46 58.31 59.39 59.25 57.83 55.33 54.26 54.1 54.11 54.27 54.11 54.04 53.86 53.84 54.35 54.92 55.4 55.39 54.56 54.31 54.19 54.15 54.14 53.97 54.07 53.9 53.88 53.88 53.88 53.97 53.87 -9999 -9999 -9999 -9999
-9999 -9999 -9999 -9999 -9999 -9999 -9999 -9999 -9999 75.74 75.75 75.6 75.54 75.59 76.26 76.29 76.28 76.3 76.25 76.25 75.95 76.24 76.18 76.1 76.13 76.14 76.15 76.24 76.24 76.19 76.19 76.15 76.05 76.05 76 76.07 76.1 76.09 76.1 76.11 76.28 76.32 76.4 76.21 76.23 76.12 76.1 76.12 76.1 76.14 76.08 76.04 76.08 76.03 75.98 75.99 76 76.08 76.01 76.02 76.04 76.08 76.12 76.14 76.31 76.09 75.53 74.92 74.42 74.32 74.3 74.08 74 74.4 74.5 74.52 74.38 74.1 73.99 73.86 73.39 74.01 74.01 74.06 74.02 74.05 74.07 73.95 74.04 74.13 74.22 74.37 74.28 74.16 74.15 74.22 74.37 74.4 74.44 74.52 74.4 74.57 74.65 74.54 74.59 74.44 74.45 74.46 74.46 74.47 74.55 74.56 74.65 74.6 74.58 74.57 74.47 74.51 74.5 74.48 74.5 74.49 74.53 74.54 74.55 74.6 74.58 74.58 74.63 74.66 74.68 74.62 74.69 74.76 74.72 74.66 74.62 74.76 74.83 74.82 74.74 74.74 74.76 74.82 74.77 74.78 74.74 74.75 74.86 74.73 74.8 74.7 74.66 74.62 74.66 74.47 74.54 74.69 74.66 74.54 74.54 74.33 74.44 74.27 74.33 74.28 74.24 74.24 74.13 73.98 73.99 73.86 73.58 73.62 73.57 73.7 73.89 73.75 73.67 73.59 73.52 73.62 73.51 73.3 73.41 73.48 73.52 73.05 72.99 72.88 72.92 72.97 72.91 72.87 72.86 72.82 72.72 72.69 72.71 72.65 72.09 72 71.83 71.75 71.73 71.73 71.78 71.48 71.35 71.24 71.14 71.11 71.01 70.76 70.79 70.68 70.18 69.64 70.34 70.17 69.92 69.81 69.4 69.39 68.87 68.3 67.49 67 66.52 66.38 65.82 63.71 62.16 61.76 59.74 59.68 59.75 59.63 59.23 59.16 59.04 59.01 58.96 58.96 58.92 58.88 58.91 58.89 58.91 58.99 59.22 59.25 58.96 58.9 58.93 59.12 59.02 58.73 58.76 59.51 58.66 58.04 57.91 57.88 58.47 57.85 57.41 57.46 57.31 57.28 57.24 57.22 57.15 57.09 57.04 57.02 56.87 56.85 56.82 56.7 56.64 56.58 56.45 56.37 56.32 56.17 56.17 56.12 56.08 56.02 55.92 55.84 55.82 55.82 55.69 55.6 55.52 55.69 55.36 55.29 55.16 55.1 55.18 55.19 55.07 54.95 54.89 54.83 54.73 54.74 54.79 54.7 54.68 54.64 54.61 54.65 54.58 54.61 54.55 54.51 54.47 54.42 54.4 54.04 53.92 53.81 53.57 53.58 53.54 53.43 53.28 53.13 53.01 53.29 53.33 53.62 53.69 53.58 53.54 53.52 53.54 53.27 53.27 53.35 53.36 53.69 54.41 56.27 57.12 57.18 57.1 56.88 57 57.04 56.74 55.17 54.33 54.52 54.36 54.48 54.62 54.49 54.59 54.56 54.61 54.59 54.59 54.55 54.81 54.74 54.73 54.76 54.86 54.68 54.61 54.59 54.63 54.64 54.67 54.44 54.42 54.38 54.49 54.87 54.91 54.71 54.5 54.49 54.42 54.76 54.73 54.73 54.81 54.72 54.79 54.42 54.28 54.36 54.45 54.62 54.73 54.77 54.66 54.66 56.4 59.09 59.36 59.33 56.82 54.72 54.21 54.1 54.09 54.15 53.86 53.97 53.84 53.86 54.09 54.45 54.62 54.46 54.31 54.33 54.26 54.1 54.2 54.19 53.96 53.82 53.87 53.91 53.85 53.9 53.92 -9999 -9999 -9999 -9999
-9999 -9999 -9999 -9999 -9999 -9999 -9999 -9999 -9999 75.81 75.78 75.68 75.62 75.59 76.3 76.26 76.29 76.3 76.29 76.26 75.93 76.18 76.13 76.16 76.12 76.06 76.23 76.25 76.22 76.23 76.18 76.17 76.16 76.03 76.03 76.11 76.15 76.15 76.26 76.21 76.31 76.34 76.29 76.35 76.19 76.11 76.12 76.19 75.97 76.1 76.06 76.07 76.11 76.03 76.05 76 76.06 76.05 76.01 76.06 76.02 76.17 76.19 76.13 76.18 76.12 75.64 75.17 74.52 74.48 74.31 74.16 74.13 74.44 74.42 74.45 74.59 74.44 74.45 74.43 74.07 73.88 74.02 74.22 74.18 74.15 73.98 74.09 74.14 74.21 74.33 74.41 74.2 74.19 74.23 74.33 74.39 74.48 74.57 74.43 74.37 74.39 74.48 74.47 74.48 74.49 74.5 74.52 74.53 74.46 74.48 74.69 74.83 74.8 74.72 74.64 74.62 74.62 74.6 74.63 74.59 74.7 74.71 74.67 74.66 74.7 74.66 74.6 74.64 74.64 74.67 74.72 74.73 74.73 74.72 74.77 74.73 74.81 74.89 74.86 74.9 74.77 74.72 74.89 74.84 74.77 74.79 74.84 74.74 74.77 74.84 74.81 74.68 74.83 74.72 74.42 74.54 74.68 74.69 74.51 74.33 74.29 74.17 74.16 74.12 74.15 74.19 74.17 74.2 74.29 74.06 73.74 73.63 73.62 73.68 73.76 73.82 73.83 73.63 73.62 73.51 73.66 73.43 73.34 73.02 72.73 72.85 72.84 72.81 72.45 72.85 72.86 72.88 72.84 72.79 72.76 72.7 72.71 72.69 72.56 72.09 71.88 71.86 71.78 71.73 72.41 72.48 71.56 71.38 71.28 71.21 71.17 70.9 70.79 70.83 70.66 70.25 70.1 70.42 70.28 69.94 69.63 69.61 69.19 68.63 68.1 67.4 66.8 66.65 66.21 65.38 62.93 62.12 60.65 59.89 59.96 59.97 59.82 59.31 59.24 59.28 59.09 59.09 59.05 59.01 59.01 58.97 58.93 58.92 59.02 59.2 59.2 58.94 58.85 58.88 59.01 58.97 58.87 58.79 58.74 58.67 58.51 57.84 58 58.43 57.67 57.46 57.45 57.25 57.26 57.17 57.13 57.1 57.06 56.92 56.86 56.73 56.74 56.75 56.72 56.57 56.52 56.38 56.32 56.24 56.18 56.15 56.08 56.03 55.92 55.9 55.88 55.79 55.67 55.64 55.56 55.47 55.43 55.28 55.24 55.21 55.16 55.13 55.18 55.1 54.95 54.86 54.77 54.74 54.69 54.71 54.72 54.64 54.62 54.62 54.63 54.58 54.51 54.49 54.34 54.22 54.2 54.07 54.06 53.88 53.55 53.52 53.51 53.52 53.3 53.13 52.92 52.91 53.33 53.25 53.3 53.33 53.47 53.37 53.28 53.12 53.01 53.25 53.49 53.73 53.84 54.88 56.83 57.22 57.21 57.03 56.62 57.02 57.01 56.01 54.99 54.78 54.76 54.65 54.64 54.58 54.61 54.66 54.59 54.61 54.7 54.54 54.74 54.81 54.67 54.74 54.7 54.62 54.68 54.63 54.6 54.62 54.69 54.6 54.49 54.59 54.39 54.89 54.91 54.87 54.97 54.74 54.65 54.57 54.73 54.86 54.92 54.78 54.72 54.77 54.48 54.33 54.46 54.26 54.77 54.77 54.83 54.74 54.73 57.43 59.31 59.33 58.75 56.02 54.34 54.22 54.15 54.27 54.26 54.17 53.9 53.92 54.08 54.09 54.3 54.35 54.2 54.3 54.37 54.2 54.27 54.27 54 54.13 53.77 53.8 53.92 53.94 53.92 53.87 -9999 -9999 -9999 -9999
-9999 -9999 -9999 -9999 -9999 -9999 -9999 -9999 -9999 75.77 75.75 75.72 75.57 75.54 76.29 76.29 76.26 76.31 76.27 76.26 75.95 76.28 76.16 76.17 76.12 76.13 76.19 76.22 76.23 76.25 76.19 76.19 76.12 75.96 76.03 76.08 76.2 76.16 76.23 76.22 76.29 76.4 76.29 76.22 76.15 76.03 76.11 76.21 76.04 76.19 76.09 76.13 76.05 76 76.06 76.09 76.06 76.06 76.03 76.05 76.11 76.19 76.12 76.11 76.12 76.13 75.9 75.48 74.76 74.54 74.31 74.13 74.45 74.48 74.45 74.45 74.45 74.47 74.48 74.43 74.17 74.13 74.16 74.26 74.26 74.32 74.13 74.23 74.24 74.26 74.41 74.22 74.25 74.17 74.27 74.46 74.43 74.51 74.54 74.44 74.36 74.38 74.45 74.57 74.56 74.57 74.59 74.57 74.58 74.6 74.47 75.1 74.98 74.89 74.81 74.73 74.72 74.71 74.67 74.66 74.67 74.74 74.83 74.91 74.8 74.76 74.85 74.79 74.74 74.77 74.71 74.74 74.7 74.76 74.83 74.83 74.83 74.86 74.84 74.73 74.73 74.74 74.72 74.72 74.72 74.68 74.81 74.81 74.85 74.75 74.78 74.7 74.65 74.75 74.59 74.34 74.68 74.69 74.73 74.62 74.62 74.53 74.34 74.21 74.21 74.17 74.13 74.14 74.12 74.06 73.87 73.66 73.69 73.66 73.75 73.89 73.81 73.59 73.74 73.72 73.55 73.6 73.4 73.49 73.14 72.99 72.72 72.69 72.67 72.71 72.45 72.62 72.81 72.79 72.79 72.7 72.6 72.58 72.55 72.54 72.13 71.89 71.77 71.76 71.71 71.73 72.32 71.57 71.41 71.3 71.23 71.15 70.89 70.9 70.87 70.79 70.32 70.47 70.45 70.27 69.99 69.7 69.53 68.96 68.42 67.82 67.13 66.65 66.19 65.66 64.52 62.73 62.13 60.02 60.18 60.2 60.08 59.88 59.5 59.4 59.28 58.42 58.57 59.24 59.14 59.11 59.12 59.05 59.04 59.03 59.06 59.06 58.96 58.85 59.01 59.1 59.08 58.95 59.11 58.76 58.7 58.48 58.07 58.14 58.28 57.59 57.47 57.39 57.43 57.27 57.11 57.07 57.12 56.94 56.82 56.74 56.71 56.65 56.66 56.63 56.52 56.49 56.37 56.24 56.19 56.07 56.1 56.03 55.98 56.05 55.82 55.81 55.68 55.65 55.63 55.56 55.48 55.36 55.25 55.2 55.14 55.1 55.05 55.14 55.05 54.93 54.92 54.88 54.84 54.76 54.72 54.62 54.52 54.51 54.63 54.6 54.58 54.46 54.11 54 53.93 53.84 53.8 53.81 53.85 53.47 53.51 53.56 53.53 53.27 53.06 53.15 53.22 53.25 53.26 53.14 52.92 53.18 53.33 53.28 53.05 52.98 53.46 53.75 54.12 54.08 55.29 57.1 57.14 57.2 56.98 56.92 57.09 57.03 55.48 54.87 54.76 54.82 54.85 54.79 54.76 55.05 54.75 54.57 54.64 54.67 54.64 54.58 54.85 54.78 54.75 54.65 54.53 54.75 54.71 54.75 54.66 54.59 54.65 54.49 54.43 54.41 54.88 54.89 54.86 54.82 54.76 54.74 54.52 54.76 54.58 54.57 54.68 54.79 54.73 54.34 54.43 54.42 54.54 54.65 54.69 54.71 54.82 55.53 58.46 59.4 59.25 57.73 55.29 54.32 54.17 54.22 54.16 54.08 54.22 54.08 53.89 54.15 53.94 54.28 54.13 54.05 54.15 54.3 54.26 54.11 54 53.97 54.03 53.73 53.92 53.88 53.96 53.89 53.95 -9999 -9999 -9999 -9999
-9999 -9999 -9999 -9999 -9999 -9999 -9999 -9999 -9999 75.81 75.62 75.6 75.6 75.52 76.28 76.29 76.27 76.31 76.28 76.22 75.9 76.1 76.12 76.11 76.09 76.01 76.11 76.21 76.17 76.23 76.25 76.12 76.13 76.04 76.06 76.1 76.19 76.23 76.2 76.24 76.44 76.31 76.29 76.22 76.21 76.14 76.15 76.13 76.2 76.11 76.13 76.15 76.06 76.08 76.09 76.08 76.11 76.07 76.07 76.09 76.13 76.16 76.12 76.11 76.14 76.06 75.96 75.61 74.95 74.44 74.28 74.18 74.46 74.48 74.55 74.49 74.47 74.46 74.48 74.29 74.37 74.28 74.28 74.26 74.02 74.3 74.32 74.33 74.35 74.36 74.44 74.23 74.23 74.31 74.4 74.48 74.52 74.57 74.51 74.95 74.51 74.49 74.64 74.61 74.56 74.51 74.54 74.54 74.54 74.52 74.48 74.86 75.06 74.98 74.89 74.83 74.81 74.79 74.74 74.73 74.8 74.79 74.94 74.93 74.92 75.01 75.12 75.02 74.91 75.04 75.01 75.01 74.95 74.83 74.86 74.84 74.84 74.83 74.84 74.83 74.78 74.77 74.71 74.68 74.67 74.58 74.6 74.57 74.58 74.55 74.6 74.65 74.54 74.66 74.5 74.39 74.55 74.65 74.6 74.61 74.67 74.48 74.35 74.37 74.38 74.39 74.32 74.2 74.07 74.06 73.77 73.74 73.7 73.77 73.75 73.75 73.7 73.66 73.58 73.54 73.48 73.46 73.41 73.48 73.33 73.22 72.59 72.56 72.71 72.75 72.45 72.59 72.41 72.37 72.71 72.73 72.72 72.66 72.47 72.34 72.06 71.82 71.76 71.67 71.66 71.59 71.48 71.43 71.37 71.31 71.24 71.19 70.86 70.95 70.85 70.81 70.69 70.6 70.53 70.33 69.95 69.92 69.5 68.99 68.13 67.44 66.73 66.27 65.75 64.75 63.28 62.54 60.14 60.29 60.24 60.24 60.3 60.51 60.55 59.9 59.52 57.86 59.36 59.41 59.29 59.3 59.27 59.18 59.15 59.2 59.13 59.03 58.96 58.91 59.34 59.17 59.23 58.99 58.98 58.82 58.8 58.65 58.39 58.45 58.11 57.59 57.43 57.25 57.21 57.13 57.15 57.02 56.88 56.81 56.69 56.68 56.7 56.64 56.66 56.54 56.48 56.38 56.36 56.21 56.14 56.08 56.08 56.05 55.86 55.78 55.75 55.67 55.64 55.56 55.44 55.46 55.37 55.37 55.31 55.27 55.18 55.16 55.08 55.12 55.07 54.93 54.82 54.74 54.69 54.66 54.65 54.6 54.6 54.53 54.63 54.64 54.52 54.31 53.91 53.85 53.76 53.56 53.57 53.38 53.44 53.41 53.44 53.62 53.49 53.42 53.24 53.26 53.35 53.3 53.07 52.84 52.7 52.79 52.96 52.86 52.84 53.23 53.71 54 54.42 54.51 55.96 57.12 57.15 57.19 56.96 57.04 57.08 57.06 55.03 54.93 54.75 54.73 54.73 54.84 54.71 54.85 54.66 54.59 54.79 54.57 54.61 54.73 54.96 54.74 54.71 54.7 54.75 54.77 54.79 54.66 54.58 54.58 54.78 54.58 54.64 54.62 55 54.78 55.09 54.9 54.73 54.77 54.53 54.84 54.59 54.54 54.73 54.58 54.96 54.29 54.53 54.56 54.57 54.65 54.61 54.72 54.63 56.5 59.16 59.31 59.23 56.79 54.57 54.33 54.19 54.19 54.41 54.3 54.35 54.15 53.99 54.18 53.98 54.1 54.02 54.09 54.37 54.07 54.05 53.97 54.02 53.94 53.92 53.78 53.99 53.99 53.95 53.95 53.89 -9999 -9999 -9999 -9999
