ncols         438
nrows         37
xllcenter     357455
yllcenter     501345
cellsize      5
nodata_value  -9999
-9999 -9999 -9999 -9999 63.18 63.39 63.52 63.54 63.29 63.56 64.27 64.52 64.77 64.76 64.74 64.73 64.75 64.78 64.82 64.54 64.28 63.89 63.43 63.06 62.98 62.93 62.88 62.83 62.77 62.86 62.64 62.56 62.71 62.66 62.69 62.61 62.53 62.61 62.45 62.08 61.89 59.93 59.43 59.38 59.55 61.15 62.1 60.46 59.85 59.37 60.22 60.09 59.99 60.08 60.12 60.03 59.99 57.65 55.92 55.59 55.36 54.93 55.03 54.94 54.91 54.86 54.87 55.09 55.11 55.11 55.01 55.14 55.13 55.22 55.2 55.26 55.2 55.17 55.03 55.02 55 54.84 54.89 54.94 54.81 54.77 54.81 54.84 54.78 54.88 55.03 56.97 56.74 56.11 55.96 55.97 56.02 56 55.97 57.02 56.07 55.95 55.99 55.96 55.95 55.94 56.28 56.81 56.66 56.46 55.98 54.5 54.24 54.56 54.61 54.72 54.83 54.93 54.96 54.99 55.25 55.84 55.81 55.73 55.72 55.39 55.14 55.08 55.05 55.18 55.15 55.18 55.26 55.33 55.38 55.47 55.52 55.6 55.69 56.55 56.58 56.42 55.87 55.8 55.82 55.87 55.93 55.82 56.72 55.9 55.93 55.91 55.89 55.83 55.83 56.93 57.13 57.25 56.85 55.98 55.89 55.07 55.2 55.39 55.41 55.7 55.73 55.92 55.8 55.8 55.71 55.69 55.71 55.69 55.57 55.62 55.53 55.76 55.85 55.91 55.83 55.93 56.33 56.51 56.62 56.82 56.83 56.95 57 57.02 56.99 57.06 57.1 56.13 56.14 56.15 56.25 56.33 56.41 56.53 56.64 56.15 56.21 56.2 56.19 56.16 56.15 56.97 56.93 55.52 55.42 55.5 55.64 55.52 55.53 55.59 55.58 55.52 55.54 55.53 55.31 55.29 55.42 55.31 55.19 55.14 55.21 55.02 55.01 54.11 53.97 54.17 54.03 54.07 54.23 54.71 54.68 54.75 54.62 54.52 54.77 54.99 54.96 54.86 55.33 55.34 55 54.13 53.83 52.88 52.12 52.09 52.01 52.02 52.04 52.07 52.03 51.98 51.99 52.01 52 51.99 53.8 54.01 54.7 55.34 55.83 57.21 58.4 59.28 61.02 61.59 62.54 64.23 64.11 64.08 64.24 64.6 64.89 65.1 65.22 65.32 65.44 65.64 66.39 66.3 66.44 66.55 66.6 66.37 66.22 66.15 66.36 66.43 66.55 66.63 66.69 66.66 66.72 67.22 67.28 67.37 67.42 67.56 67.7 67.7 67.7 67.68 67.75 67.76 67.9 68.3 68.67 68.53 68.67 68.73 68.92 69.07 69.16 69.2 69.32 69.48 69.43 69.46 70 70.09 70.11 70.15 70.07 69.97 70.33 69.81 69.75 70.1 70.97 70.9 71.21 71.33 71.42 70.95 71.52 71.67 71.68 71.77 71.85 72.16 72.12 72.27 72.16 71.74 72.25 72.45 72.49 72.61 72.59 72.58 72.37 72.33 72.43 72.39 72.35 72.35 72.19 72.16 72.28 72.26 72.08 72.1 72.16 72.05 71.97 71.88 68.46 67.95 67.81 67.78 68.06 68.27 68.65 69.27 69.33 69.62 71.26 73.64 73.27 73.72 73.29 73.37 73.45 73.69 73.98 74.22 74.29 74.35 74.45 74.45 74.46 74.48 74.53 74.48 74.43 74.39 74.46 74.48 74.49 74.57 74.63 74.55 74.54 74.66 74.66 74.75 74.96 74.93 74.91 74.87 74.81 74.66 74.64 74.53 74.46 74.22 74.06 73.89 73.67 73.47 73.24 73.04 72.96 72.74 -9999 -9999 -9999 -9999 -9999 -9999 -9999 -9999
-9999 -9999 -9999 -9999 63.19 63.64 63.7 63.78 63.76 63.1 64.37 64.82 64.73 64.73 64.72 64.71 64.74 64.8 64.4 63.99 63.82 63.5 63.39 63.06 63.04 62.96 62.89 62.86 62.95 62.72 62.66 62.63 62.67 62.72 62.68 62.67 62.67 62.52 62.28 61.84 60.36 59.44 59.39 59.29 59.68 62.12 61.9 60.05 59.57 59.62 60.17 60.02 60.11 60.3 60.03 59.99 57.94 56.31 55.54 55.54 55.05 55.03 54.85 54.91 55.01 54.88 55.1 55.12 55.18 55.13 55.06 55.17 55.19 55.22 55.29 55.14 55.19 55.11 55.01 55.12 54.8 54.81 54.86 55.03 55.1 54.87 54.78 54.75 54.94 54.84 56.63 56.81 56.05 56.04 56.05 55.97 55.96 55.99 56.51 56.9 55.99 55.96 55.91 55.96 55.94 56.07 56.71 56.73 56.41 56.58 56.39 55.37 54.63 54.47 54.58 54.73 54.84 54.95 54.99 55.06 55.77 55.78 55.8 55.78 55.17 55.22 55.18 55.2 55.1 55.1 55.11 55.27 55.29 55.37 55.4 55.61 55.56 55.6 56.15 56.58 56.46 55.87 55.8 55.81 55.81 55.81 55.87 56.56 55.86 55.9 55.93 55.92 55.9 55.88 56.28 57.11 57.2 57.26 56.28 56.03 55.28 55 55.08 55.03 55.07 55.22 55.41 55.57 55.71 55.68 55.75 55.75 55.79 55.58 55.6 55.7 55.68 55.77 55.85 55.94 56.03 56.08 56.05 56.39 56.3 56.42 56.82 57.07 57.08 56.83 56.91 57.06 56.99 56.12 56.16 56.19 56.23 56.3 56.23 56.99 56.16 56.18 56.16 56.18 56.15 56.17 56.92 56.99 55.98 55.39 55.47 55.45 55.46 55.5 55.51 55.45 55.36 55.48 55.63 55.51 55.26 55.46 55.52 55.17 55.13 55.07 55.33 54.9 54.8 53.92 54.11 54.08 53.92 53.9 54.3 53.93 54.74 54.83 54.74 54.62 54.87 55.12 55.04 55.4 55.28 55.17 54.63 53.89 53.48 52.35 52.05 52.1 52.08 52.05 52.02 52.05 52.02 52 52 52.03 52.04 51.98 53.76 54.14 54.7 55.77 56.72 58.11 59.25 60.06 61.42 61.82 63.73 64.13 64.06 64.06 64.48 64.57 64.06 64.52 65.31 65.48 65.52 66.13 66.6 66.71 66.36 66.54 66.58 66.41 66.25 66.28 66.42 66.58 66.75 66.79 66.78 67.11 67.34 67.45 67.57 67.61 67.65 67.66 67.59 67.59 67.64 67.69 67.77 67.87 68.02 68.18 68.33 68.5 68.6 68.69 68.84 68.98 69.04 69.17 69.3 69.38 69.5 69.61 69.73 69.79 69.83 69.89 69.98 69.95 69.91 69.86 69.89 70.17 70.82 71.11 71.19 71.48 71.42 71.31 71.51 71.72 71.7 71.79 71.94 72.14 72.18 71.8 71.79 71.65 71.69 72.6 72.63 72.52 72.51 72.64 72.49 72.56 72.48 72.54 72.46 72.27 72.2 72.35 72.49 72.32 72.05 72.18 72.15 72 72.02 70.72 67.5 67.98 67.98 68.06 68.25 68.49 68.8 69.2 69.49 70.67 72.87 73.11 73.4 73.85 73.33 73.49 73.67 73.77 74.07 74.18 74.32 74.4 74.43 74.42 74.55 74.57 74.54 74.48 74.45 74.39 74.43 74.46 74.55 74.6 74.62 74.61 74.63 74.63 74.67 74.85 75 75.01 74.93 74.89 74.87 74.74 74.67 74.62 74.48 74.28 74.14 73.97 73.77 73.54 73.38 73.17 73.12 72.95 -9999 -9999 -9999 -9999 -9999 -9999 -9999 -9999
-9999 -9999 -9999 -9999 63.5 63.81 63.82 63.91 64.02 64.09 64.09 64.71 64.71 64.69 64.69 64.7 64.76 64.5 64 63.38 63.02 62.99 63.09 63.05 63.02 63.26 62.95 62.94 62.78 62.72 62.8 62.81 62.68 62.68 62.7 62.62 62.65 62.28 62.21 61.58 59.47 59.24 59.19 59.42 61.14 62.06 60.08 59.62 59.23 60.12 60.06 60.1 60.19 60.06 60.08 58.35 56.14 55.68 55.66 55.12 54.94 54.91 54.93 54.94 55.01 55.03 55.11 55.18 55.14 55.12 55.14 55.08 55.07 55.11 55.19 55.15 55.13 55 54.91 54.81 54.81 54.81 54.85 54.91 54.93 54.8 54.77 54.97 54.74 56.56 56.89 56.53 56 55.93 55.96 56.03 55.99 56.01 56.97 55.95 55.98 55.95 55.91 56 55.96 56.58 56.77 55.03 55.19 56.05 56.5 56.33 55.42 54.52 54.6 54.75 54.82 54.97 55.08 55.29 55.82 55.83 55.85 55.28 55.29 55.23 55.2 55.17 55.1 55.1 55.14 55.17 55.29 55.38 55.41 55.51 55.56 55.82 56.81 56.47 56.1 55.84 55.84 55.8 55.82 55.84 56.07 56.44 55.91 55.89 55.9 55.87 55.91 55.92 56.99 57.08 57.26 56.88 56.47 56.07 55.26 55.06 55.02 54.97 55.05 55.07 55.03 54.89 55.29 55.43 55.61 55.71 55.58 55.62 55.65 55.62 55.66 55.81 55.91 56 56 55.94 56.02 56.15 56.09 56.19 56.67 56.99 56.98 57.12 56.96 57.2 56.2 56.2 56.18 56.2 56.23 56.22 56.89 56.29 56.2 56.18 56.18 56.15 56.13 56.75 56.97 56.91 55.96 55.49 55.43 55.43 55.48 55.52 55.47 55.46 55.53 55.49 55.56 55.42 55.47 55.63 55.53 55.23 55.2 55.23 55.28 55.19 54.09 53.99 54.05 54.07 54 53.82 54.29 54.45 54.26 54.88 54.87 54.87 55.13 55.22 55.33 55.33 55.19 54.75 54.29 53.55 53.18 52.14 52.19 52.06 52.07 52.06 52.01 52.01 52 52.03 52.04 52.04 52.02 52.07 54.19 54.19 54.11 55.04 57.34 58.65 59.85 61.14 61.67 63.3 63.93 64.37 64.12 64.11 65.06 64.74 64.64 64.5 64.92 65.56 65.58 65.74 66.36 66.37 66.41 66.52 66.48 66.47 66.33 66.5 66.63 66.59 66.99 66.91 66.87 67.19 67.46 67.63 67.37 67.68 67.47 67.66 67.74 67.62 67.83 68 68.07 68.19 68.3 68.65 68.55 68.74 68.89 69.23 69.19 69.24 69.19 69.33 69.46 69.69 69.95 69.88 69.94 70.03 70.08 70.33 70.34 70.37 70.41 70.02 69.98 70.33 71.52 71.31 71.35 71.51 71.58 71.48 71.7 71.73 71.69 71.81 72.04 72.01 72.19 71.71 71.7 71.67 71.74 72.77 72.77 72.73 72.72 72.73 72.67 72.65 72.59 72.56 72.48 72.24 72.28 72.33 72.42 72.23 72.12 72.2 72.19 71.99 72.06 69.46 68.25 68.09 68.18 68.53 68.46 68.81 69.09 69.47 70.01 72.05 72.78 72.86 73.58 74.28 73.53 73.64 73.77 73.87 74.04 74.17 74.23 74.47 74.52 74.56 74.54 74.51 74.54 74.52 74.56 74.53 74.55 74.58 74.54 74.63 74.64 74.69 74.67 74.72 74.78 74.84 74.9 74.96 74.93 74.89 74.89 74.8 74.69 74.65 74.52 74.35 74.23 73.98 73.81 73.54 73.39 73.28 73.05 72.86 -9999 -9999 -9999 -9999 -9999 -9999 -9999 -9999
-9999 -9999 -9999 -9999 63.93 64.04 63.94 63.99 64.24 63.71 64.63 64.65 64.65 64.65 64.68 64.74 64.61 64.16 63.54 62.91 62.94 63.04 63.02 63.08 62.93 62.87 63.12 62.85 62.79 62.69 62.84 62.86 62.82 62.68 62.62 62.62 62.34 62.19 62.28 61.73 60.9 60.64 59.79 59.93 62.06 61.67 59.13 59.09 59.2 60.25 60.12 60.19 60.08 59.99 58.68 56.24 55.53 55.5 55.32 55.01 55.01 54.97 54.87 54.86 54.93 55.14 55.19 55.15 55.17 55.09 55.1 55.03 55.05 55.15 55.17 55.1 55.12 54.93 54.83 54.79 54.81 54.8 54.9 54.87 54.96 54.9 54.84 54.88 54.97 56.85 56.72 55.98 55.95 55.94 55.92 55.94 56.05 56.85 56.43 56.01 55.94 55.92 55.96 55.99 55.99 56.67 56.33 54.43 54.27 54.48 55.56 56.28 56.39 55.46 54.71 54.74 54.89 54.99 55.05 55.74 55.83 55.78 55.78 55.15 55.14 55.29 55.18 55.13 55.13 55.16 55.15 55.24 55.23 55.29 55.43 55.41 55.59 56.41 56.59 56.43 55.8 55.9 55.88 55.87 55.82 55.81 56.72 55.86 55.9 55.93 55.92 55.87 55.73 56.75 56.96 57.31 56.67 56.73 55.48 55.55 55.46 55.36 55.13 55.11 55.02 55.16 55.06 55.07 55.18 55.12 55.39 55.55 55.52 55.46 55.55 55.66 55.86 55.9 55.78 55.98 56.16 55.99 55.94 55.92 55.85 56.09 56.39 56.74 56.8 57.04 57.17 56.16 56.12 56.13 56.19 56.26 56.39 56.6 56.72 56.13 56.24 56.18 56.16 56.15 56.14 57.01 56.92 56.68 55.46 55.41 55.84 55.42 55.5 55.45 55.51 55.57 55.52 55.61 55.39 55.28 55.49 55.73 55.46 55.36 55.33 55.36 55.27 54.52 53.77 54.06 54.09 54.09 54.03 54.04 54.18 54.51 54.27 54.77 54.86 55.13 55.33 55.26 55.45 55.36 54.78 54.28 53.92 53.4 52.43 52.07 52.12 52.14 52.11 52.08 52.06 52.04 52.02 52.05 52.05 52.07 52.04 53.6 54.41 54.89 54.13 54.5 58.29 59.67 60.67 61.37 62.05 63.53 63.98 64.23 64.19 64.39 65.19 65.3 65.63 65.53 65.58 65.62 65.65 66.37 66.43 66.5 66.48 66.47 66.49 66.5 66.33 66.67 67.13 67.01 66.92 66.86 67.07 67.2 67.49 67.88 67.52 67.72 67.68 67.76 68 66.96 68.05 68.2 68.2 68.1 68.23 68.69 68.86 68.83 69.02 69.23 69.36 69.42 69.38 69.42 69.47 69.77 70.12 70.32 70.32 70.51 70.37 70.53 70.51 70.37 70.4 69.98 70.1 70.28 71.5 71.77 72.02 71.81 71.52 71.53 71.79 71.93 71.93 71.98 72.03 72.14 72.29 72.31 72.41 72.38 72.48 72.76 72.82 72.72 72.72 72.74 72.7 72.75 72.61 72.59 72.37 72.33 72.47 72.57 72.35 72.31 72.22 72.12 72.05 72.2 71.49 68.2 68.21 68.23 68.45 68.59 68.8 69.18 69.53 69.85 70.52 71.76 72.8 72.92 73.47 73.49 73.57 73.74 73.79 73.97 74.14 74.17 74.29 74.49 74.63 74.58 74.56 74.54 74.56 74.54 74.57 74.6 74.64 74.62 74.6 74.71 74.77 74.83 74.71 74.85 74.87 74.89 75 75 75 75.05 74.91 74.82 74.68 74.64 74.49 74.35 74.18 74.01 73.8 73.46 73.28 73.14 72.93 72.78 -9999 -9999 -9999 -9999 -9999 -9999 -9999 -9999
-9999 -9999 -9999 -9999 63.59 64.27 64.05 64.08 64.3 63.42 64.65 64.61 64.6 64.65 64.71 64.62 64.12 63.66 63.29 62.87 62.98 62.97 63.05 62.97 63.05 63.02 62.92 62.82 62.74 62.89 62.89 62.86 62.9 62.77 62.6 62.32 62.03 62.08 61.89 61.3 60.93 60.26 59.99 61.94 62 59.79 58.97 59.02 59.85 60.19 60.21 60.18 59.98 59.19 56.84 55.58 55.54 55.36 54.97 54.92 54.9 54.87 54.93 54.89 55.18 55.1 55.13 55.14 55.18 55.12 55.03 55.16 55.2 55.09 55.15 55.17 55.12 55.06 54.79 54.87 54.77 54.83 54.93 54.87 55.04 54.87 54.73 54.85 56.53 56.78 56.04 55.98 55.96 55.95 55.94 55.96 56.38 56.82 55.95 55.9 55.87 56 55.94 55.98 56.56 56.74 56.53 55.37 53.92 53.87 54.79 55.53 56.39 56.42 55.89 55.07 54.94 55.01 55.81 55.82 55.78 55.83 55.53 55.37 55.14 55.09 55.13 55.14 55.14 55.19 55.25 55.16 55.34 55.32 55.37 55.37 55.73 56.62 56.3 55.79 55.9 55.81 55.83 55.89 55.85 56.64 56.06 55.92 55.88 55.88 55.87 55.89 56.3 56.96 56.78 55.64 56.7 56.07 55.71 55.8 55.92 55.84 55.84 55.51 55.32 55.42 55.4 55.41 55.12 55.05 55.3 55.3 55.47 55.62 55.54 55.66 55.59 55.71 55.78 55.78 55.82 55.85 55.96 55.89 55.83 55.87 56.05 56.14 56.79 57.08 57.08 56.09 56.12 56.15 56.17 56.19 56.22 57.03 56.16 56.13 56.12 56.18 56.18 56.16 56.86 57.04 56.74 56.44 55.72 55.29 55.67 55.52 55.41 55.48 55.59 55.53 55.51 55.42 55.31 55.44 55.51 55.44 55.45 55.33 55.46 55.53 55.27 53.95 53.99 54.12 54.1 54 54.08 54.32 54.59 54.93 54.81 54.07 55.14 55.18 55.34 55.33 55.28 55.03 54.63 54.26 53.65 52.91 52.03 52.02 52.01 52.03 52.07 52.04 51.99 52.02 52.04 52.04 52.03 52.03 52 54.11 54.91 55.08 54.46 54.85 56.79 60.62 61.09 61.87 62.7 63.55 64.12 64.18 64.19 64.65 65.24 65.45 65.56 65.57 65.61 65.64 65.65 66.41 66.43 66.52 66.51 66.46 66.49 66.45 66.4 67.02 67 67.19 67.39 67.22 67.21 67.43 67.53 68.07 67.7 67.66 67.7 67.81 68.06 68.14 68.14 68.28 68.31 68.22 68.22 68.82 68.83 68.89 69.13 69.22 69.35 69.47 69.42 69.43 69.59 69.94 70.18 70.33 70.35 70.52 70.59 70.52 70.25 70.4 70.4 70.28 70.2 70.18 71.14 71.9 71.76 71.87 71.73 71.88 71.86 71.96 72.04 72.08 72.15 72.2 72.28 72.32 72.38 72.41 72.49 72.53 72.56 72.61 72.57 72.56 72.53 72.5 72.47 72.45 72.41 72.43 72.57 72.58 72.34 72.43 72.6 72.38 72.08 71.99 69.85 67.89 68.2 68.45 68.55 68.74 68.94 69.37 69.84 70.36 70.94 71.49 72.1 72.94 73.18 73.3 73.65 73.64 73.89 73.93 74.11 74.22 74.26 74.47 74.54 74.6 74.64 74.64 74.56 74.56 74.61 74.7 74.63 74.69 74.73 74.78 74.83 74.83 74.87 74.91 74.89 74.96 74.98 75 75.1 75.07 74.91 74.83 74.74 74.71 74.5 74.33 74.21 74 73.78 73.44 73.19 72.98 72.85 72.78 -9999 -9999 -9999 -9999 -9999 -9999 -9999 -9999
-9999 -9999 -9999 -9999 64.45 64.47 64.17 64.18 64.38 64.63 64.62 64.62 64.62 64.69 64.7 64.12 63.7 63.15 62.89 62.99 63.05 62.98 63 63.01 62.92 63.01 62.85 62.77 62.88 62.84 62.87 62.92 63.13 62.9 62.44 62.15 61.94 62.01 61.57 60.88 60.2 59.99 61.77 62.02 60.54 58.86 58.47 59.64 60.14 60.2 60.36 60.03 59.4 56.76 55.7 55.47 55.48 55.19 54.98 54.89 54.9 55 54.83 54.85 55.08 55.08 55.19 55.18 55.25 55.2 55.07 55.18 55.05 55.08 55.27 55.06 55.04 54.9 54.76 54.76 54.77 54.86 54.88 54.87 55.09 54.85 54.76 55.33 56.97 56.62 56.02 56.02 56 55.98 55.95 55.98 56.97 56.07 55.93 55.92 55.9 55.93 55.95 56.31 56.57 56.54 56.32 55.31 54.07 53.82 53.87 54.35 55.12 56.48 56.34 56.28 55.49 55.81 55.87 55.86 55.89 55.74 55.26 55.35 55.21 55.17 55.17 55.15 55.18 55.19 55.23 55.24 55.28 55.4 55.41 55.57 56.75 56.44 56.09 55.85 55.86 55.86 55.87 55.83 55.93 56.69 55.9 55.88 55.87 55.84 55.82 55.88 56.94 56.95 56.22 55.87 55.72 55.67 55.74 55.89 55.98 55.99 55.94 55.91 55.83 55.78 55.66 55.41 55.12 55.18 55.13 55.22 55.54 55.51 55.67 55.41 55.55 55.65 55.65 55.58 55.74 55.73 55.71 55.73 55.76 55.91 56 56.25 57.18 57.19 56.15 56.11 56.16 56.16 56.19 56.21 56.79 56.37 56.12 56.15 56.16 56.15 56.13 56.34 57.03 57.12 56.55 56.19 55.82 55.28 55.82 55.54 55.6 55.42 55.4 55.51 55.46 55.47 55.55 55.57 55.49 55.36 55.37 55.47 55.54 55.56 54.67 53.83 54.16 54.11 54.04 54.13 54.44 54.77 54.91 54.36 54.71 54.65 54.84 55.32 55.23 55.24 55.34 54.7 54.74 54.17 53.18 52.4 52.09 52.03 52.03 52.04 52.05 52.03 52.03 52.03 52.02 52.03 52.04 52.01 52.05 54.53 55.36 55.39 54.95 55.42 57.01 60.65 61.53 62.17 62.87 63.72 64.38 64.25 64.22 65.03 65.38 65.51 65.63 65.67 65.64 65.63 65.71 66.41 66.44 66.67 66.6 66.48 66.57 66.4 66.44 66.72 67.01 67.15 67.31 67.33 67.39 67.47 67.59 67.91 67.65 67.72 67.78 67.82 68.12 68.34 68.29 68.31 68.29 68.17 68.27 68.82 69.21 68.99 69.14 69.67 69.52 69.45 69.55 69.68 69.81 70.15 70.19 70.23 70.32 70.46 70.5 70.42 70.34 70.32 70.35 70.53 70.29 70.29 70.57 70.82 71.08 71.31 71.57 71.8 71.91 71.95 72.05 72.11 72.18 72.25 72.31 72.34 72.41 72.54 72.54 72.61 72.63 72.69 72.66 72.64 72.61 72.62 72.61 72.55 72.66 72.69 72.69 72.61 72.75 72.69 72.48 72.84 71.96 71.84 68.7 68.29 68.29 68.51 68.56 68.99 69.29 69.83 70.26 70.9 71.38 71.88 72.34 72.85 73.33 73.83 74.14 73.83 74.03 73.94 74.04 74.12 74.32 74.37 74.48 74.62 74.59 74.58 74.68 74.6 74.65 74.71 74.75 74.74 74.75 74.74 74.77 74.91 74.97 74.89 74.92 75.06 75.01 75.07 75.19 75.09 74.96 74.9 74.77 74.74 74.55 74.35 74.15 73.92 73.74 73.44 73.17 72.93 72.81 72.75 -9999 -9999 -9999 -9999 -9999 -9999 -9999 -9999
-9999 -9999 -9999 -9999 64.39 64.44 64.24 64.3 64.5 63.39 64.64 64.64 64.66 64.7 62.34 62.65 63.23 62.83 62.97 63 63.03 63.11 63.01 63.01 63.08 62.91 62.83 62.97 62.94 62.9 62.82 62.8 62.91 62.43 62.14 61.79 61.96 61.59 61.06 60.32 59.86 61.3 61.95 61.17 59.41 59.3 59.41 60.28 60.24 60.45 60.08 59.69 57.06 55.8 55.39 55.4 55.26 54.91 54.92 55.02 54.95 54.92 54.98 54.9 55.02 54.92 55.03 55.23 55.15 55.17 55.11 55.11 55.04 54.95 55.1 55.11 54.92 54.85 54.78 54.77 54.79 54.81 54.85 54.94 54.93 54.76 55 56.75 56.79 55.98 55.99 56.04 56.07 56.02 55.97 56.89 56.59 55.95 55.92 55.94 55.97 55.94 55.97 56.62 56.67 56.38 54.95 53.87 53.79 53.78 53.8 53.81 54.16 54.79 55.88 56.45 56.17 55.91 55.84 55.84 55.89 55.63 55.18 55.24 55.17 55.13 55.12 55.18 55.14 55.25 55.23 55.32 55.35 55.34 55.36 56.42 56.5 56.4 55.84 55.85 55.85 55.85 55.86 55.87 56.77 55.88 55.91 55.89 55.92 55.85 55.76 56.73 57.03 56.19 55.78 55.74 55.74 55.73 55.82 55.92 55.99 56.04 55.96 56.08 55.93 55.86 55.84 55.6 55.45 55.32 55.22 55.32 55.61 55.63 55.59 55.46 55.51 55.52 55.6 55.51 55.53 55.44 55.45 55.55 55.65 55.87 56.12 56.87 57.18 56.39 56.12 56.09 56.15 56.15 56.19 56.2 56.88 56.1 56.28 56.16 56.12 56.16 56.22 56.99 57.09 57.27 55.63 55.47 55.58 55.6 55.44 55.46 55.45 55.52 55.55 55.55 55.42 55.37 55.47 55.61 55.33 55.29 55.47 55.52 55.58 55.6 54.06 53.74 54.35 54.15 54.11 54.21 54.55 54.63 53.99 54.02 54.46 54.9 54.01 55.28 54.9 55.18 54.91 54.81 54.7 53.4 53.09 52.18 52.04 52.06 52.07 52.07 52.06 52 52.04 52 52.03 52.04 52.06 52.02 53.1 54.87 55.65 55.68 55.85 55.81 56.54 60.66 61.95 62.33 63.24 63.86 64.38 64.34 64.47 65.32 65.46 65.59 65.71 65.84 65.87 66.01 66.5 66.44 66.5 66.57 66.57 66.55 66.52 66.44 66.8 67.08 67.09 67.14 67.34 67.39 67.23 67.49 67.57 67.57 67.67 67.7 67.77 68.08 68.2 68.26 68.3 68.4 68.41 68.51 68.59 68.91 69.04 69.14 69.39 69.56 69.54 69.65 69.79 69.9 70.13 70.33 70.24 70.3 70.41 70.35 70.41 70.43 70.41 70.4 70.4 70.54 70.42 70.44 70.76 71.03 71.31 71.52 71.79 71.98 72.09 72.18 72.25 72.35 72.39 72.48 72.52 72.58 72.68 72.78 72.92 72.95 72.99 73.08 72.98 73 72.98 73.06 72.94 72.92 73.11 72.97 72.72 72.37 72.54 72.56 72.43 72.29 72.14 70.86 67.73 68.38 68.54 68.73 69.03 69.28 69.64 70.06 70.56 71.13 71.72 72.38 72.86 73.27 73.63 73.97 74.29 74.47 74.73 74.33 74.12 74.02 74.18 74.39 74.34 74.54 74.65 74.73 74.67 74.76 74.79 74.76 74.78 74.76 74.79 74.83 74.85 74.81 74.94 74.88 74.94 75.12 75.09 75.03 75.22 75.08 75.02 74.94 74.91 74.76 74.56 74.43 74.2 73.89 73.67 73.48 73.24 73 72.84 72.78 -9999 -9999 -9999 -9999 -9999 -9999 -9999 -9999
-9999 -9999 -9999 -9999 64.41 64.36 64.3 64.37 64.55 63.52 63.36 64.62 64.68 61.73 62.4 62.72 62.92 62.91 62.93 62.97 62.94 62.96 62.99 63.01 62.92 62.86 63.06 62.98 62.96 62.97 62.91 62.73 62.64 62.73 61.9 61.79 61.52 61.11 60.31 59.79 61.08 62.02 61.34 59.15 59.57 60.14 60.29 60.28 60.31 60.14 60.08 57.4 55.82 55.39 55.41 55.28 55.07 54.91 54.93 54.95 54.91 55 54.85 54.91 54.98 55.02 54.93 54.98 55.15 55.2 55.05 54.99 55.05 54.92 54.98 55.06 54.99 54.94 54.87 54.82 54.82 54.87 54.86 55 54.87 54.84 56.32 56.74 56.27 56.02 55.96 55.93 55.97 56.02 56.04 56.95 56.03 55.9 55.94 55.93 55.94 56.01 56.56 56.61 56.05 54.66 53.85 53.84 53.78 53.78 53.79 53.78 53.82 54 54.59 55.32 56.19 56.02 55.83 55.82 55.86 55.3 55.24 55.21 55.2 55.15 55.09 55.17 55.16 55.2 55.26 55.31 55.33 55.32 55.95 56.7 56.49 55.9 55.72 55.83 55.84 55.82 55.8 56.37 56.12 55.76 55.84 55.9 55.9 55.84 56.06 56.92 56.79 55.58 55.54 55.6 55.62 55.77 55.88 56.05 55.93 56.01 55.87 55.86 55.9 55.96 55.87 55.79 55.59 55.43 55.4 55.7 55.71 55.52 55.6 55.59 55.47 55.45 55.47 55.43 55.36 55.52 55.44 55.49 55.7 55.97 57.07 57.12 57.12 56.18 56.13 56.16 56.18 56.19 56.14 57.04 56.18 56.11 56.12 56.22 56.2 56.16 56.96 57.05 57.2 57.14 55.6 55.48 55.5 55.47 55.31 55.45 55.47 55.54 55.53 55.43 55.35 55.42 55.5 55.46 55.42 55.39 55.7 55.54 55.55 54.85 53.35 54 54.08 54.11 54.04 54.47 54.61 54.01 53.69 54.41 54.7 54.84 55.12 54.26 54.78 54.58 54.81 55.25 54.39 52.82 52.95 52.02 52.05 52.06 52.08 52.1 52.1 52.04 52.02 52.06 52.03 52.03 52.01 52.01 53.48 54.81 55.77 55.75 56.44 55.88 56.49 60.18 62.47 62.84 63.36 64.12 64.32 64.35 64.66 65.56 65.51 65.65 65.73 65.86 65.99 66.16 66.81 66.51 66.62 66.69 66.69 66.74 66.51 66.55 67.12 67.18 67.22 67.2 67.27 67.29 67.58 67.68 67.71 67.96 68.05 68.21 68.22 68.53 68.5 68.32 68.67 68.82 69 68.93 68.85 69.16 69.44 69.6 69.74 69.72 69.81 69.94 70.09 70.22 70.6 70.79 70.87 71.08 71.06 71.06 71.07 71 70.96 70.89 70.77 70.63 70.53 70.62 71.64 72.08 72.19 72.34 72.49 72.56 72.66 72.82 72.91 72.99 73.15 73.33 73.24 73.05 73.01 72.94 73.04 73.1 73.32 73.53 73.84 74.17 73.99 73.9 73.04 72.93 72.67 72.82 72.67 72.9 72.64 72.56 72.49 72.4 72.02 69.93 68.38 68.6 68.77 69.04 69.3 69.54 69.97 70.53 71.01 71.5 72.18 72.63 73.18 73.6 73.86 74.23 74.56 74.5 74.6 74.77 74.66 74.55 74.4 74.34 74.43 74.45 74.69 74.68 74.59 74.84 74.73 74.7 74.74 74.83 74.82 74.88 74.86 74.93 74.96 74.89 75 75.14 75.13 75.08 75.25 75.1 75.04 74.97 74.85 74.73 74.55 74.38 74.11 73.86 73.64 73.39 73.24 72.96 72.9 72.77 -9999 -9999 -9999 -9999 -9999 -9999 -9999 -9999
-9999 -9999 -9999 -9999 64.61 64.51 64.41 64.4 64.57 63.56 63.39 63.29 62.52 61.83 61.9 62.51 62.77 63.41 62.92 62.96 62.95 62.93 63.15 63 62.98 62.89 62.96 62.94 62.93 63.06 62.91 62.75 62.44 62.09 60.14 59.4 61.03 60.31 59.71 60.73 62.05 61.77 59.07 58.73 58.59 60.31 60.31 60.33 60.21 60.12 58.01 56.07 55.38 55.58 55.51 55.11 54.94 54.89 54.89 54.9 54.94 55.01 55.07 54.94 54.99 54.93 54.87 54.95 54.95 55.12 55.01 55.12 54.99 54.9 54.98 54.97 54.96 54.89 54.87 54.81 54.85 54.88 54.98 54.81 54.75 55.18 56.99 56.7 55.97 55.94 55.92 56.01 55.94 55.98 56.9 56.04 55.97 55.93 55.95 55.92 55.93 56.32 56.65 56.44 54.76 53.93 53.86 53.81 53.8 53.76 53.8 53.81 53.82 54.11 54.8 55.76 56.14 55.86 55.86 55.82 55.9 55.3 55.19 55.17 55.2 55.1 55.08 55.14 55.23 55.21 55.25 55.42 55.35 55.4 56.64 56.55 56.38 55.82 55.85 55.78 55.86 55.84 55.96 56.68 55.91 55.84 55.89 55.86 55.88 55.88 56.87 56.94 55.63 55.56 55.6 55.53 55.67 55.77 55.89 55.96 56.07 56.01 55.95 56.03 55.94 55.79 55.83 55.73 55.52 55.45 55.63 55.64 55.64 55.69 55.73 55.58 55.31 55.44 55.35 55.39 55.23 55.37 55.48 55.63 56.04 56.75 57.06 56.95 56.16 56.18 56.15 56.17 56.21 56.22 56.81 56.08 56.17 56.12 56.13 56.14 56.13 56.28 57.03 57.19 57.07 55.52 55.65 55.45 55.53 55.47 55.67 55.24 55.65 55.58 55.6 55.44 55.35 55.49 55.46 55.45 55.41 55.6 55.61 55.54 55.46 54.03 53.6 54.22 54.04 54.13 54.18 54.46 54.1 53.73 54.62 54.35 54.9 54.95 55.1 54.37 53.88 54.13 54.66 54.84 53.89 52.74 52.12 52.05 52.05 52.04 52.03 52.03 52.03 52.04 52.02 52.04 52.02 52.02 52.03 52.45 53.76 54.5 55.72 56.01 56.35 56.43 56.96 59.04 61.43 62.48 63.06 64.45 64.39 64.37 65.18 66.63 65.7 65.97 66.07 66.12 66.26 66.37 66.5 66.56 66.61 66.7 66.75 66.79 66.81 66.96 67.01 67.06 67.15 67.19 67.27 67.34 67.46 67.51 67.61 67.76 67.87 68.01 68.15 68.33 68.63 68.67 68.85 69.04 69.4 69.58 69.74 69.66 69.38 69.47 69.84 69.96 70.43 71.39 70.71 70.57 70.63 70.86 70.96 70.88 70.89 71.01 71.02 71.02 71.36 71.24 71.2 70.75 70.6 70.72 71.52 71.98 72.36 72.3 72.6 72.67 72.8 72.75 72.97 73.19 73.4 73.44 73.3 73.34 73.13 73.04 73.24 73.22 73.29 73.31 73.34 73.59 74.01 74.07 73.61 73.4 73.27 72.98 73.2 72.79 72.66 72.64 72.78 71.18 69.42 68.55 68.61 68.81 69.03 69.23 69.5 69.89 70.37 70.8 71.42 72.17 72.45 72.93 73.51 73.74 74.09 74.29 74.49 74.55 74.59 74.6 74.56 74.74 74.8 74.9 74.56 74.46 74.63 74.68 74.61 74.74 74.56 74.57 74.68 74.71 74.87 74.88 74.93 74.88 74.8 74.8 74.93 75.05 75.12 75.12 75.1 75.01 75 74.94 74.88 74.65 74.5 74.33 74.07 73.82 73.58 73.35 73.08 73.1 72.9 72.61 -9999 -9999 -9999 -9999 -9999 -9999 -9999 -9999
-9999 -9999 -9999 -9999 64.67 64.58 64.41 64.42 64.51 63.84 63.28 63.21 63.15 62.12 61.96 62.05 62.56 62.82 63.07 62.89 63 62.82 63.09 63.01 62.98 63.04 62.94 62.87 63 63.13 62.78 62.62 62.28 59.98 59.18 60.93 60.48 59.68 60.43 62.11 62 59.51 58.54 58.49 59.64 60.27 60.4 60.3 60.13 58.15 56.16 55.51 55.28 55.38 55.41 55 54.89 54.95 54.89 54.9 54.98 54.93 54.96 54.89 54.89 54.94 54.94 54.93 54.91 54.95 54.95 54.97 54.96 54.94 55.12 55.09 55.15 55.01 54.85 54.84 54.8 54.77 54.79 54.69 54.87 56.68 56.84 56.05 55.96 55.96 55.96 55.93 56.03 56.57 56.72 55.93 55.97 55.97 55.96 55.88 56.04 56.68 56.65 55.49 54.2 53.86 53.78 53.79 53.77 53.81 53.81 53.77 53.95 54.59 55.84 56.14 55.83 55.83 55.76 55.76 55.86 55.51 55.34 55.22 55.08 55.22 55.18 55.18 55.24 55.29 55.27 55.26 55.22 56.29 56.68 56.49 55.89 55.85 55.85 55.86 55.86 55.83 56.75 55.87 55.9 55.87 55.84 55.84 55.8 56.63 56.81 56.34 55.53 55.53 55.54 55.63 55.56 55.73 55.71 55.85 55.81 55.85 55.9 55.83 55.91 55.62 55.73 55.59 55.5 55.56 55.68 55.75 55.74 55.7 55.79 55.59 55.48 55.41 55.37 55.36 55.3 55.41 55.62 55.72 56.4 56.98 57 56.16 56.15 56.14 56.15 56.17 56.21 56.23 56.91 56.24 56.16 56.14 56.13 56.14 56.15 57 57.09 57.12 55.36 55.36 55.48 55.35 55.47 55.5 55.46 55.53 55.43 55.58 55.6 55.55 55.49 55.65 55.54 55.48 55.5 55.68 55.57 55.53 55.12 54.04 54.21 54.09 54.05 54.16 54.28 54.35 53.98 54.83 54.27 54.68 54.91 54.79 55.05 55.29 54.65 54.31 54.64 54.53 52.89 52.09 52.05 52.05 52.06 52.06 52.06 52.06 52.01 52.06 52 52.04 52.04 52.03 52.09 52.81 53.18 54.28 55.2 55.73 56.16 57.15 57.34 58.3 59.67 62.22 63.04 64.53 64.52 64.51 65.49 66.52 65.89 66.13 66.08 66.13 66.21 66.3 66.47 66.75 67.07 67.1 67.09 67.19 67.4 67.36 67.45 67.6 67.63 67.65 67.32 67.95 67.96 67.75 67.95 68.23 68.17 68.3 68.31 68.4 68.41 68.53 68.76 69.37 69.49 69.51 69.86 69.91 70.02 69.92 70.17 70.31 70.87 71.08 70.66 70.67 70.81 70.63 70.67 70.83 71.09 71.25 71.28 71.78 71.95 71.58 71.59 71.27 70.63 70.83 71.36 71.92 72.21 72.33 72.54 72.77 72.78 72.89 73.01 73.16 73.24 73.53 73.5 73.58 73.49 73.18 73.23 73.19 73.13 73.46 73.62 73.39 73.81 73.73 73.64 73.69 73.59 73.42 73.29 72.86 72.86 72.71 72.47 70.95 69.06 67.82 68.71 68.94 69.1 69.38 69.71 70.22 70.73 71.31 72 72.42 72.95 73.37 73.66 74.01 74.11 74.26 74.36 74.54 74.5 74.59 74.54 74.6 74.66 74.61 74.7 74.77 74.72 74.61 74.64 74.67 74.58 74.54 74.72 74.74 74.79 74.76 74.84 74.86 74.74 74.74 74.91 75 74.99 75.02 74.91 74.86 74.86 74.83 74.71 74.56 74.37 74.13 73.91 73.74 73.49 73.29 73.13 73.06 72.82 72.72 -9999 -9999 -9999 -9999 -9999 -9999 -9999 -9999
-9999 -9999 -9999 -9999 64.5 64.52 64.38 64.55 64.22 63.95 63.65 63.43 63.25 63.15 62.53 62.16 62.23 62.59 62.82 63 62.86 63.14 63.03 63.11 63.11 63.06 63.01 62.95 63.01 62.98 62.81 62.44 62.1 61.27 60.72 60.69 59.67 60.04 62.11 62.03 59.77 58.51 58.77 59.27 60.3 60.39 60.47 60.18 58.66 56.35 56.02 55.33 55.45 55.53 55.04 54.91 54.92 54.9 54.93 54.91 54.99 54.95 54.88 54.83 54.97 54.9 54.87 54.96 54.92 54.9 54.84 55.07 54.99 54.99 55.28 55.51 55.54 55.35 55.34 54.87 54.79 54.82 54.74 54.86 56.16 56.86 56.54 56.09 56.03 55.94 55.93 55.95 55.96 56.93 55.99 55.96 56.01 55.91 55.99 56.03 56.66 56.6 56.14 54.52 53.95 53.92 53.82 53.79 53.78 53.81 53.81 53.78 54.36 55.17 56.09 55.55 55.75 55.77 55.79 55.78 55.85 55.96 55.63 55.29 55.19 55.16 55.27 55.26 55.28 55.38 55.33 55.29 55.4 56.71 56.56 55.85 55.85 55.85 55.84 55.87 55.89 56.26 56.35 55.9 55.86 55.87 55.87 55.83 55.87 56.88 56.88 55.49 55.55 55.52 55.49 55.56 55.62 55.64 55.7 55.85 55.76 55.7 55.65 55.92 55.6 55.63 55.59 55.58 55.46 55.7 55.72 55.7 55.63 55.74 55.62 55.44 55.39 55.23 55.25 55.23 55.24 55.4 55.61 55.66 57 57.04 56.93 56.18 56.17 56.17 56.17 56.17 56.19 56.94 56.21 56.14 56.12 56.17 56.13 56.17 56.84 57.08 56.7 55.36 55.34 55.39 55.42 55.42 55.39 55.44 55.6 55.51 55.51 55.72 55.48 55.65 55.72 55.51 55.3 55.34 55.6 55.61 55.5 55.41 54.45 54.01 54.24 54.06 54.19 54.14 54.3 54.25 54.77 55.14 54.54 54.75 54.79 54.7 55.2 55.29 54.86 54.29 54.46 53.43 52.51 52.12 52.1 52.08 52.05 52.06 52.07 52.07 52.05 52.05 51.99 52.03 51.97 51.86 52.66 52.84 53.84 55 55.76 56.29 57.03 57.04 58.04 58.31 58.81 62.31 63.68 64.47 64.52 64.98 65.81 65.75 65.89 66.03 66.17 66.52 66.53 66.53 66.81 66.85 66.98 67.23 67.39 67.34 67.52 67.51 67.5 67.62 67.7 67.66 67.54 68.11 67.83 68.04 68.4 68.68 68.99 69.05 68.76 68.84 69.14 68.96 69 68.81 68.93 69.08 69.23 69.51 69.83 69.84 70.04 70.32 70.85 70.63 70.55 70.26 70.4 70.73 71.07 71.35 71.42 72.2 71.66 71.76 71.55 71.53 71.57 71.64 70.71 70.88 71.58 72.21 72.29 72.33 72.54 73.44 72.97 73.18 73.49 73.57 73.75 73.6 73.45 73.58 73.33 73.18 73.38 73.67 73.3 73.39 73.55 73.41 73.56 73.9 73.75 73.79 73.75 73.44 73.23 73.06 73.08 72.89 72.89 72.17 70.03 67.92 68.8 69.1 69.3 69.58 69.92 70.49 71.03 71.68 72.24 72.84 73.49 73.59 73.86 73.89 74.21 74.28 74.36 74.35 74.48 74.46 74.62 74.68 74.65 74.63 74.61 74.76 74.75 74.77 74.63 74.4 74.63 74.57 74.6 74.61 74.62 74.71 74.66 74.66 74.73 74.77 74.94 74.96 74.91 74.87 74.82 74.79 74.77 74.71 74.56 74.45 74.23 74 73.78 73.58 73.37 73.19 73.07 72.91 72.81 72.79 -9999 -9999 -9999 -9999 -9999 -9999 -9999 -9999
-9999 -9999 -9999 -9999 64.4 64.32 64.47 64.43 64.32 64.14 63.93 63.61 63.47 63.23 63.08 63.03 62.36 62.41 62.6 62.8 63.02 62.99 62.94 63.08 63.07 63.03 63.11 63.01 62.97 62.88 62.83 62.54 62.15 60.31 58.76 59.12 59.79 62.19 62.06 60.09 58.44 58.65 59.27 60.32 60.4 60.61 60.21 59.09 56.68 55.53 55.4 55.41 55.18 55.07 55.04 54.91 55.03 54.92 54.94 54.95 54.9 54.91 54.88 54.9 54.91 54.94 54.91 55.01 54.98 54.95 55.01 54.96 54.97 55.29 55.59 55.67 55.6 54.93 54.94 54.88 54.83 54.92 54.88 55.18 57.21 56.77 56.01 55.97 55.98 56 55.93 56.04 56.94 56.21 55.94 55.94 55.95 55.95 55.96 56.03 56.73 56.67 55.04 54.09 53.8 53.77 53.81 53.78 53.83 53.77 53.81 54.28 55.17 56.01 55.73 55.84 55.86 55.95 55.98 55.98 55.88 55.92 55.91 55.63 55.36 55.27 55.26 55.46 55.43 55.42 55.3 55.33 56.55 56.55 56.41 55.84 55.84 55.86 55.88 55.89 55.89 56.79 55.86 55.83 55.78 55.8 55.82 55.86 56.84 56.78 55.89 55.62 55.56 55.82 55.6 55.58 55.59 56.06 55.92 55.83 55.79 55.78 55.73 55.87 55.7 55.64 55.66 55.55 55.59 55.65 55.69 55.77 55.68 55.7 55.54 55.43 55.29 55.18 55.22 55.25 55.18 55.4 55.43 56.07 57.07 56.99 56.16 56.08 56.19 56.17 56.16 56.14 56.45 56.34 56.12 56.12 56.12 56.15 56.18 56.13 57.02 57.08 55.62 55.45 55.56 55.53 55.55 55.53 55.54 55.63 55.59 55.66 55.64 55.72 55.68 55.88 55.62 55.44 55.41 55.5 55.52 55.53 55.54 55.24 53.9 54.23 54.1 53.96 54.08 54.11 54.37 54.69 55.2 55.24 54.71 54.63 54.12 55.04 55.19 55.26 54.53 54.15 53.66 52.82 52.14 52.17 52.14 52.12 52.1 52.07 52.07 52.06 52.06 52.06 52.01 52.04 52.04 52.12 52.7 53.1 54.18 55.17 55.96 56.51 57.12 57.6 58.63 58.77 59.42 61.22 64.26 64.55 64.5 65.04 65.66 65.56 65.95 67.18 67.87 67.54 66.69 66.81 66.99 67.12 67.21 67.11 67.29 67.31 67.52 67.58 67.61 67.74 67.75 67.63 68.18 68.03 68.13 68.49 68.73 68.7 68.7 68.84 68.85 68.93 69.31 69.12 69.21 70.05 69.14 69.19 69.29 69.32 69.45 69.56 69.68 69.8 69.92 70.06 70.22 70.36 70.78 71.04 71.35 71.77 72 72.09 72.05 71.81 71.55 71.68 71.65 71.65 70.71 70.94 71.78 72.2 72.39 72.95 73.61 73 73.3 73.27 73.4 74.03 74.98 75.88 75.06 74.52 74.54 74.52 74.63 74.6 73.8 73.36 73.45 73.37 73.49 73.42 73.93 73.67 73.77 73.42 73.04 72.86 73.13 73.2 72.98 72.36 70.85 68.56 69.09 69.24 69.52 69.82 70.18 70.64 71.22 71.8 72.41 72.99 73.42 73.82 73.95 74.2 74.6 74.16 74.3 74.33 74.29 74.36 74.5 74.57 74.61 74.62 74.69 74.69 74.67 74.64 74.69 74.64 74.57 74.58 74.54 74.56 74.57 74.58 74.6 74.53 74.72 74.81 74.9 74.92 74.83 74.79 74.71 74.66 74.7 74.65 74.48 74.33 74.13 73.85 73.64 73.38 73.23 73.11 73.04 72.87 72.87 72.9 -9999 -9999 -9999 -9999 -9999 -9999 -9999 -9999
-9999 -9999 -9999 -9999 63.86 64.21 64.5 64.36 64.27 64.17 63.96 63.76 63.55 63.4 63.21 63.12 63.03 62.72 62.63 62.78 62.89 62.91 62.98 62.96 63.02 63.09 63.17 62.99 63.06 62.93 62.71 62.38 62.18 59.6 59.33 59.32 62.05 62.07 60.49 58.39 58.39 58.97 60.47 60.46 60.61 60.28 59.57 56.92 55.54 55.48 55.43 55.23 55.24 55.03 55.3 54.93 54.96 54.89 54.96 54.92 54.98 54.92 54.9 54.97 55.05 54.89 54.93 54.92 54.96 54.96 54.88 55.21 55.15 55.37 55.51 55.79 54.94 54.93 55.33 55.19 54.99 54.95 55.12 56.62 56.86 56.02 56.06 55.94 55.96 55.96 56.04 56.43 56.76 56 55.95 55.95 55.95 55.97 56.13 56.73 56.77 55.52 54.29 53.82 53.78 53.78 53.83 53.86 53.82 53.85 53.89 54.79 55.94 55.83 55.81 55.96 56.01 56.06 56.04 56.03 55.99 56.01 56.1 56.06 55.79 55.3 55.35 55.36 55.42 55.36 55.01 55.48 56.57 56.39 55.85 55.79 55.85 55.86 55.86 55.88 56.54 55.91 55.83 55.85 55.8 55.81 55.91 56.51 56.95 56.77 55.72 55.69 55.63 55.76 55.78 55.78 55.93 55.84 55.92 55.89 55.83 55.95 55.98 55.88 55.8 55.72 55.64 55.61 55.8 55.76 55.78 55.77 55.75 55.44 55.44 55.41 55.29 55.14 55.15 55.18 55.25 55.13 55.41 57.01 57 56.75 56.15 56.17 56.11 56.19 56.18 56.21 56.92 56.17 56.15 56.16 56.17 56.12 56.17 56.88 57 55.77 55.47 55.58 55.59 55.51 55.68 55.62 55.67 55.7 55.69 55.91 55.7 55.66 55.73 55.79 55.57 55.42 55.39 55.64 55.59 55.54 55.47 54.7 54.17 54.16 54.12 53.99 54.04 54.21 54.5 54.96 55.43 55.65 55.41 53.94 54.37 55.35 55.48 54.96 54.14 53.84 53.23 52.76 52.19 52.17 52.16 52.14 52.12 52.1 52.08 52.07 52.02 52.08 52.01 52.07 52.12 52.94 53.79 54.1 54.75 55.56 55.97 56.86 57.57 58.42 58.67 59.02 60.32 62.67 64.67 64.64 64.68 65.14 65.54 66.13 66.64 67.91 67.88 67.01 66.85 66.93 67.04 67.2 67.34 67.29 67.37 67.5 67.57 67.67 67.68 67.81 67.86 67.77 67.93 68.09 68.54 68.89 69.19 69.49 69.83 69.82 69.72 69.42 69.24 69.19 69.18 69.29 69.14 69.23 70.02 70.19 69.68 69.84 70 70.16 70.15 70.2 70.43 71.3 71.05 71.25 71.6 72.19 72.31 72.71 72.39 72.17 71.93 71.86 71.8 71.69 70.83 71.01 71.67 72.4 72.81 72.59 73.22 73.02 73.19 73.46 73.64 74.81 76.76 75.84 74.89 74.75 74.61 74.88 74.99 74.91 74.82 74.78 73.53 73.51 73.59 73.45 73.63 73.77 73.61 73.59 72.84 72.69 72.73 73.07 72.73 72.56 71.72 69.04 69.32 69.55 69.74 70.04 70.41 70.82 71.39 71.92 72.51 73.11 73.59 73.8 74.15 74.26 74.36 74.57 74.61 74.36 74.31 74.38 74.54 74.51 74.54 74.39 74.51 74.6 74.69 74.71 74.76 74.64 74.58 74.78 74.79 74.79 74.72 74.72 74.65 74.79 74.75 74.62 74.83 74.9 74.86 74.73 74.7 74.71 74.67 74.55 74.39 74.26 73.95 73.83 73.63 73.36 73.16 73.02 72.98 72.87 72.83 72.92 -9999 -9999 -9999 -9999 -9999 -9999 -9999 -9999
-9999 -9999 -9999 -9999 63.7 64.15 64.48 64.28 64.19 64.08 63.88 63.72 63.61 63.55 63.35 63.3 63.11 62.94 62.78 62.85 62.87 63.06 62.91 62.92 62.95 63.07 63.08 62.9 62.88 62.59 62.66 62.32 61.22 59.37 58.99 61.65 62.09 60.96 58.49 58.5 58.8 60.38 60.48 60.58 60.32 59.81 57.09 55.73 55.46 55.44 55.3 55.37 55.05 55.04 55.07 55.11 54.86 54.96 55.01 54.94 54.96 54.93 54.99 54.92 54.9 54.89 54.92 55.01 54.96 54.82 55 55.37 55.34 55.47 55.64 54.98 54.87 55.1 55.45 55.67 55.16 55.14 55.52 56.88 56.59 56.01 56.03 55.99 55.96 55.95 55.97 57.01 56 55.96 55.97 55.98 55.94 56.03 56.6 56.68 56.07 54.43 53.88 53.87 53.85 53.74 53.75 53.82 53.79 53.9 54.45 55.7 56.25 56.07 56.01 56.11 56 56.05 56.13 55.93 55.5 55.62 56.16 56.66 56.3 55.97 55.49 55.46 55.52 55.39 55.4 56.63 56.41 56.01 55.72 55.78 55.86 55.89 55.86 56.13 56.42 55.84 55.85 55.81 55.85 55.82 55.84 56.92 57.03 55.63 55.58 55.64 55.77 55.78 55.7 55.78 55.85 55.93 55.91 55.94 55.86 55.85 56.04 55.88 55.97 55.77 55.66 55.81 55.79 55.81 55.77 55.87 55.75 55.6 55.36 55.23 55.26 55.19 55.18 55.14 55.09 55.27 55.76 57.1 57.05 56.09 56.14 56.14 56.16 56.15 56.19 56.83 56.24 56.13 56.05 56.14 56.12 56.18 56.68 56.83 56.72 55.55 55.53 55.62 55.59 55.58 55.62 55.67 55.65 55.73 55.89 55.82 55.7 55.68 55.88 55.71 55.49 55.35 55.65 55.68 55.59 55.49 55.18 54.17 54.34 54.24 54.02 54.01 53.94 54.58 54.58 55.41 55.73 55.64 54.48 53.55 55.25 55.39 55.25 54.5 53.9 53.45 53.05 52.07 52.18 52.17 52.15 52.14 52.12 52.1 52.08 52.07 52.03 52.03 52.08 52.03 52.73 53.54 54.14 54.76 55.37 55.73 56.22 57.08 58.29 59.13 59.55 60.43 62.55 63.94 64.67 64.63 64.99 65.78 66.2 66.61 67.4 68.21 67.12 66.95 67.08 67.06 67.17 67.37 67.44 67.44 67.6 67.77 67.66 67.86 67.85 67.84 67.84 68.68 68.29 68.41 68.93 69.45 69.8 70.36 70.1 69.98 69.83 69.76 69.66 69.37 69.41 69.3 69.48 69.53 69.41 69.63 69.82 69.77 69.93 69.98 70.14 70.26 70.72 71.02 71.44 71.66 72.08 72.46 72.74 72.91 72.95 72.71 72.4 72.12 71.96 71.44 70.89 71.12 71.73 72.19 72.44 72.95 73.25 73.59 73.35 73.91 74.19 73.58 74.45 74.6 74.85 74.86 74.76 74.78 74.82 74.92 74.83 74.84 73.54 73.56 73.39 73.35 73.69 73.74 73.57 73.56 73.29 72.96 72.73 72.84 72.72 72.58 72.44 70.9 70.03 70.09 70.2 70.96 71.09 71.15 71.5 71.81 72.41 73.07 73.66 73.98 74.14 74.37 74.47 74.56 74.63 74.48 74.5 74.2 74.43 74.42 74.38 74.66 74.62 74.53 74.5 74.57 74.59 74.68 74.55 74.48 74.53 74.55 74.61 74.9 74.81 74.72 74.88 74.57 74.84 74.91 74.82 74.77 74.71 74.66 74.64 74.51 74.39 74.19 73.96 73.74 73.56 73.32 73.14 73 72.96 72.88 72.86 72.93 -9999 -9999 -9999 -9999 -9999 -9999 -9999 -9999
-9999 -9999 -9999 -9999 63.62 64.07 64.43 64.17 63.97 63.89 63.88 63.66 63.57 63.64 63.54 63.34 63.18 63.09 62.86 62.9 63.01 62.94 62.93 62.95 62.9 63.16 62.86 62.78 62.67 62.38 62.2 62.34 60.16 58.99 61.29 62.1 61.26 58.62 58.49 59.5 60.39 60.51 60.54 60.36 60.21 57.43 55.77 55.63 55.56 55.45 55.27 55.17 54.94 54.98 54.98 54.92 54.99 54.97 54.94 54.87 54.97 54.89 55.04 54.93 54.92 54.97 54.95 54.9 54.91 54.9 55.27 55.47 55.6 55.76 55.18 54.89 54.86 55.04 55.7 55.63 55.71 55.5 56.87 56.79 56.06 56.01 56 56.01 56.04 55.96 56.86 56.43 55.95 55.99 55.95 55.97 55.94 56.04 56.73 56.52 54.54 53.81 53.79 53.86 53.8 53.79 53.8 53.83 53.78 54.08 55.11 55.9 55.97 55.96 56.03 56.08 56.15 56.13 56.08 55.19 55.15 55.07 55.04 56.21 56.51 56.33 56.15 55.52 55.7 56.1 56.55 56.58 56.44 55.83 55.86 55.92 55.87 55.92 55.88 56.76 55.95 55.9 55.88 55.86 55.82 55.92 56.85 57.02 56.18 55.64 55.55 55.67 55.73 55.85 55.87 55.71 55.86 55.86 55.86 55.93 55.87 55.9 55.7 55.77 55.89 55.81 55.65 55.7 55.91 55.84 55.88 55.8 55.74 55.51 55.44 55.26 55.18 55.21 55.13 55.15 55.25 55.36 57.03 56.97 56.13 56.1 56.09 56.16 56.15 56.16 56.2 56.63 56.17 56.16 56.15 56.14 56.15 56.15 56.94 56.89 55.65 55.49 55.45 55.55 55.62 55.74 55.67 55.78 55.84 55.79 55.95 55.84 55.79 55.82 55.74 55.57 55.48 55.61 55.67 55.69 55.29 55.4 54.69 54.25 54.16 54.12 54.12 54.04 54.53 54.91 55.42 55.79 55.75 55.14 53.25 54.58 55.3 55.39 54.69 54.21 53.86 53.46 52.24 52.05 52.02 52.11 52.15 52.13 52.11 52.1 52.08 52.06 52.06 52.02 52.07 52.2 53.5 54.24 54.6 55.11 55.53 55.9 56.61 57.62 60.01 60.84 61.85 62.58 63.75 64.59 64.69 64.67 65.22 66.02 66.17 66.78 67.19 67.57 67.68 67.31 67.09 67.11 67.17 67.46 67.55 67.65 67.7 67.84 67.98 67.92 67.98 68.04 68.1 68.12 68.25 68.62 69.28 69.83 70.3 70.83 70.81 70.57 70.47 70.36 70.26 70.13 70.18 69.96 69.63 69.81 69.67 69.87 69.83 69.97 70.02 70.24 70.39 70.83 70.95 71.33 71.71 72.03 72.48 72.85 73.11 73.35 73.38 73.19 72.96 72.63 72.32 71.45 71.09 71.33 71.79 72.3 72.65 72.91 73.36 73.4 74.02 73.82 74.21 73.82 73.57 74.32 74.64 74.07 73.91 73.76 74.33 73.77 73.85 73.92 73.71 73.48 73.38 73.36 73.27 73.28 73.61 73.5 73.51 73.27 73.14 73.08 72.92 72.99 72.65 72.59 71.13 70.85 71.42 71.37 72.8 73.01 72.51 72.3 72.13 73.44 73.74 74.17 74.38 74.53 74.62 74.7 74.71 74.76 74.76 74.7 74.7 74.38 74.56 74.54 74.64 74.52 74.48 74.62 74.49 74.57 74.64 74.67 74.6 74.48 74.49 74.52 74.7 74.62 74.82 74.83 74.91 75.01 74.82 74.8 74.78 74.68 74.64 74.51 74.36 74.14 73.95 73.72 73.46 73.28 73.13 72.99 72.94 72.9 72.9 -9999 -9999 -9999 -9999 -9999 -9999 -9999 -9999 -9999
-9999 -9999 -9999 -9999 63.48 63.97 64.47 64.32 64.03 63.79 63.71 63.59 63.65 63.45 63.32 63.31 63.23 62.91 62.86 62.91 62.97 62.93 62.94 63.02 63.12 63.03 63.01 62.63 62.44 62.15 62.15 60.95 58.85 60.86 62.11 61.67 58.96 58.38 58.47 60.3 60.54 60.59 60.42 60.25 57.79 55.86 55.67 55.58 55.53 55.45 55.34 55.22 55.03 54.92 54.92 54.91 54.99 54.9 54.92 54.95 54.95 54.9 54.94 54.89 54.89 54.91 54.95 54.85 54.89 54.92 54.9 54.92 54.93 54.98 54.9 54.92 54.89 55.54 55.57 55.48 55.59 56.05 56.8 56.05 55.96 55.95 55.96 55.97 56.01 56.33 56.97 55.92 55.98 55.98 55.95 56.01 56 56.67 56.7 55.19 54.17 54.03 54.12 54.35 54.84 53.84 53.79 53.81 53.83 54.71 55.76 55.73 55.96 55.98 56.06 56.13 56.15 56.09 55.09 55.07 54.95 54.77 54.91 56.21 56.2 56.42 56.23 56.34 56.31 56.65 56.67 56.43 55.95 55.75 55.79 55.86 55.91 55.8 56.61 56.01 55.93 55.83 55.9 55.9 55.87 56.31 56.9 56.62 55.61 55.64 55.67 55.69 55.74 55.77 55.86 55.88 55.82 55.9 55.89 55.92 55.9 55.83 55.74 55.81 55.74 55.79 55.8 55.88 55.9 55.87 55.92 55.78 55.65 55.5 55.44 55.38 55.3 55.13 55.12 55.13 55.23 56.12 57.02 56.82 56.1 56.14 56.13 56.12 56.15 56.19 56.85 56.13 56.16 56.11 56.14 56.15 56.09 56.84 56.95 56.07 55.46 55.56 55.54 55.61 55.63 55.7 55.82 55.81 55.81 56.03 55.98 55.7 55.84 55.84 55.71 55.55 55.53 55.71 55.71 55.6 55.53 55.25 54.3 54.24 54.09 54.24 54.01 54.07 55.01 55.63 55.77 55.77 55.36 53.72 54.6 55.27 55.53 55.06 54.36 54.21 53.79 52.65 52.06 52.06 52.06 52.05 52.05 52.13 52.11 52.09 52.07 52.06 52.06 52.03 52.05 52.89 53.94 54.43 54.87 55.68 55.71 56.16 57.17 58.66 60.91 62.88 63.3 63.39 64 64.94 64.75 64.96 65.33 66.03 66.41 66.76 67.24 67.84 68.05 68.48 68.79 67.3 67.44 67.58 67.67 67.68 67.85 67.91 67.99 68.12 68.28 68.14 68.8 68.23 68.46 69.06 69.6 70.15 70.77 71.36 71.47 71.29 71.13 70.97 70.77 70.81 70.62 70.53 70.44 70.32 70.22 70.09 70.18 70.26 70.2 70.4 70.65 70.9 71.26 71.49 71.88 72.43 72.86 73.3 73.58 73.84 73.9 73.63 73.38 73.05 72.66 71.52 71.27 71.99 72.14 72.53 72.85 73.11 73.32 73.43 73.54 73.6 73.8 73.97 74.01 73.85 73.84 73.94 73.89 73.91 73.97 73.97 73.89 73.81 73.69 73.55 73.42 73.29 73.22 73.14 73.14 73.59 73.76 73.53 73.38 73.35 73.44 72.77 72.65 72.4 71.76 71.73 71.95 71.68 72.14 73.41 72.67 72.25 71.32 73.41 74.26 74.29 74.49 74.59 74.69 74.79 74.81 74.85 74.88 74.91 74.87 74.93 74.94 74.6 74.51 74.49 74.58 74.41 74.51 74.56 74.46 74.48 74.44 74.52 74.52 74.57 74.44 74.51 74.52 74.58 74.69 74.7 74.7 74.71 74.72 74.71 74.63 74.51 74.34 74.13 73.94 73.71 73.51 73.27 73.14 73.05 73.02 72.92 72.96 -9999 -9999 -9999 -9999 -9999 -9999 -9999 -9999 -9999
-9999 -9999 -9999 -9999 63.31 63.9 64.26 64.43 64.1 63.82 63.64 63.62 63.47 63.3 63.16 63.09 62.9 62.83 62.95 62.89 62.85 62.89 62.98 62.98 63 62.81 62.69 63 63.13 62.1 61.5 59.79 60.57 62.11 62.02 59.44 57.99 58.77 60.08 60.58 60.6 60.53 60.29 58.09 56.13 55.81 55.66 55.53 55.35 55.42 55.21 55.21 55.02 55.02 54.95 54.92 54.91 54.97 55.01 54.94 54.93 54.91 54.9 54.9 54.91 54.92 54.91 55.11 55.19 54.97 54.95 55.04 54.9 54.97 54.88 54.87 54.9 55.74 55.64 55.56 56 56.87 56.85 55.96 56.04 55.98 55.96 55.96 56.05 57.03 56 55.95 55.99 55.97 55.94 55.98 56.5 56.65 56.14 54.98 54.99 55.5 55.18 55.24 55.36 54.76 53.75 53.81 54.28 55.44 55.96 56.01 55.98 55.97 56.11 56.06 56.18 54.98 55.03 54.99 54.92 54.96 55.88 55.9 56.03 56.32 56.27 56.6 56.53 56.61 56.54 56.05 55.9 55.85 55.84 55.87 55.89 55.93 56.56 55.97 55.93 55.95 55.84 55.93 55.85 56.82 56.91 55.77 55.55 55.7 55.75 55.55 55.79 55.68 55.81 55.79 55.86 55.92 55.83 55.98 55.95 55.84 55.79 55.77 55.68 55.69 55.67 55.73 55.77 55.82 55.62 55.53 55.53 55.41 55.39 55.37 55.18 55.13 55.15 55.15 55.55 57.08 56.92 56.14 56.16 56.16 56.12 56.16 56.14 56.79 56.17 56.16 56.15 56.18 56.11 56.14 56.66 56.93 56.83 55.53 55.5 55.61 55.6 55.67 55.76 55.74 55.72 55.78 55.94 56.1 56 55.79 55.96 55.78 55.71 55.58 55.8 55.81 55.65 55.49 55.23 54.93 54.36 54.03 54.12 54.34 54.01 54.95 55.52 55.75 55.81 55.52 54.3 54.55 55.24 55.54 54.98 55.04 54.41 54.22 53.35 52.39 52.08 52.08 52.07 52.06 52.06 52.05 52.09 52.09 52.07 52.06 52.06 52.05 52.28 53.39 54.34 54.62 54.99 55.74 56.05 56.56 58.1 59.99 62.38 63.08 63.52 64.02 64.11 64.81 64.8 65.3 65.76 66.15 66.37 66.85 67.35 67.86 68.14 68.53 68.64 68.66 68.7 68.33 68.11 68.2 68.15 68.2 68.37 68.48 68.45 68.54 68.45 68.42 68.71 69.02 69.71 70.51 71.26 71.71 72.15 71.96 71.82 71.72 71.56 71.43 71.3 71.15 71.04 70.94 70.83 70.63 70.52 70.58 70.41 70.57 70.81 71.09 71.48 71.83 72.32 72.88 73.3 73.69 74.09 74.35 74.36 74.13 73.83 73.65 72.37 71.31 71.41 71.93 72.31 72.7 73.01 73.25 73.39 73.48 73.44 73.78 73.94 73.99 74 74.03 74.08 74.11 74.12 74.05 73.99 73.83 74.06 73.98 73.51 73.02 73.07 72.75 72.45 73.15 72.98 73.48 73.36 73.31 73.23 73.11 72.89 72.81 72.64 72.37 72.48 71.89 73.26 73.04 73.84 73.77 72.93 71.99 71.21 73.54 74.1 74.68 74.67 74.71 74.79 74.82 74.78 74.84 74.88 75.04 74.97 74.96 75.06 75.1 75.07 74.9 74.55 74.48 74.51 74.42 74.36 74.47 74.45 74.45 74.48 74.5 74.45 74.49 74.56 74.59 74.55 74.68 74.64 74.64 74.75 74.65 74.6 74.44 74.28 74.13 73.91 73.72 73.44 73.27 73.21 73.18 73.01 73.01 72.95 -9999 -9999 -9999 -9999 -9999 -9999 -9999 -9999 -9999
-9999 -9999 -9999 -9999 63.17 63.79 63.99 64 63.94 63.81 63.63 63.5 63.3 63.15 63.09 62.87 62.79 62.87 62.89 62.87 62.82 62.78 62.88 62.79 62.74 62.75 62.66 63.1 63.68 62.1 60.16 60.27 62.13 62.1 59.8 58.11 58.38 59.72 60.59 60.63 60.59 60.37 58.45 56.29 55.8 55.6 55.59 55.5 55.47 55.34 55.14 55.12 54.88 54.94 54.99 54.92 54.9 54.87 54.97 54.92 54.91 54.95 54.94 54.93 55.03 54.93 54.97 54.91 55.14 55 54.86 54.92 54.93 54.89 54.85 54.97 55.02 55.7 55.91 56.9 56.83 56.82 56.1 56.06 56.05 56.02 56 55.98 56.73 56.7 56.01 55.99 56.03 56.06 56 56 56.61 56.59 55.58 55.8 55.75 55.59 55.38 55.39 55.45 55.27 54.36 54.1 54.98 55.97 55.5 55.96 55.92 55.99 56.01 56.15 55.09 54.81 54.94 54.81 54.9 55.29 55.98 55.86 56.04 56.08 56.2 56.3 56.58 56.63 56.54 55.88 55.88 55.86 55.84 55.92 55.86 56.83 55.9 55.81 55.85 55.89 55.94 55.86 56.69 56.85 56.38 55.44 55.62 55.66 55.77 55.73 55.8 55.85 55.87 55.76 55.81 55.84 55.87 55.78 55.88 55.91 55.76 55.72 55.6 55.57 55.75 55.72 55.6 55.6 55.49 55.32 55.37 55.28 55.18 55.22 55.18 55.16 55.21 55.25 56.71 56.89 56.05 56.21 56.16 56.17 56.18 56.21 56.13 56.65 56.21 56.19 56.19 56.19 56.2 56.15 56.94 57 55.63 55.47 55.63 55.72 55.64 55.72 55.81 55.92 55.85 55.91 55.9 55.94 55.83 55.89 55.9 55.78 55.67 55.62 55.81 55.72 55.57 55.51 55.14 54.57 54.17 53.93 54.5 54.05 54.18 55.5 55.76 55.77 55.45 54.48 54.43 55.05 55.43 55.07 54.99 54.93 54.28 53.82 52.85 52.12 52.08 52.08 52.08 52.07 52.07 52.06 52.06 52.07 52.07 52.05 52.06 52.1 53.12 54.25 54.46 54.77 55.43 55.72 56.25 57.53 60.89 61.95 63.46 63.52 63.88 64.24 64.96 64.81 64.81 65.48 65.81 66.19 66.41 66.86 67.43 68.02 68.24 68.61 68.95 69.14 69.21 69.16 68.94 68.78 68.63 68.84 68.85 68.88 68.7 69.05 69.03 68.97 68.98 69.22 69.93 70.77 71.54 72.15 72.71 72.73 72.61 72.5 72.19 72.02 71.94 71.7 71.58 71.53 71.37 71.29 71.24 71.13 70.91 70.89 71.19 71.45 71.86 72.27 72.72 73.21 73.59 74.04 74.56 74.92 74.94 74.73 74.42 73.54 71.45 71.47 72.06 72.43 72.94 73.05 73.08 73.24 73.4 73.4 73.53 73.65 73.64 73.99 73.98 74.04 73.79 74.01 74.28 74.35 74.5 74.68 74.69 74.25 73.71 72.97 72.9 71.68 71.94 72.93 73.01 73.08 73.65 73.33 73.21 73.65 73.28 73.07 72.92 73.11 73.47 73.3 73.91 74 73.61 73.17 72.65 71.87 71.14 73.4 73.96 74.44 74.74 74.85 74.89 74.83 74.86 74.82 74.87 74.94 75.02 75.05 75.07 75.02 75.05 75.11 75.16 75.07 74.58 74.59 74.36 74.26 74.41 74.49 74.34 74.55 74.45 74.46 74.56 74.46 74.5 74.63 74.6 74.63 74.63 74.58 74.5 74.35 74.23 74.09 73.98 73.67 73.44 73.31 73.25 73.2 73.12 72.42 73.1 -9999 -9999 -9999 -9999 -9999 -9999 -9999 -9999 -9999
-9999 -9999 -9999 -9999 63.13 63.64 63.8 63.78 63.74 63.73 63.47 63.3 63.14 63.16 62.85 62.77 62.77 62.86 62.88 62.84 62.86 62.8 62.77 62.65 62.61 62.64 62.56 62.45 61.83 60.29 60.01 62.15 62.11 60.05 57.91 58.41 59.6 60.65 60.66 60.72 60.37 58.89 56.32 55.77 55.58 55.5 55.53 55.48 55.48 55.25 55.22 55.16 54.94 54.92 54.93 55.04 54.98 54.94 54.88 54.88 54.91 54.99 54.94 54.96 54.94 54.9 54.92 55.37 54.93 54.88 54.96 54.95 54.82 54.88 54.94 55.3 55.96 55.77 55.24 56.52 56.84 56.49 56.06 56.04 56.03 56 55.96 55.92 56.42 55.94 55.98 55.95 55.99 56.03 56 56.63 56.6 56.4 56.06 55.99 55.8 55.63 55.54 55.46 55.35 55.5 55.15 54.68 55.86 55.93 55.92 55.94 55.97 56.04 56.16 55.58 54.73 54.78 54.73 54.83 54.75 55.04 56.07 56.04 56.03 56.07 56.2 56.44 56.53 56.47 55.81 55.82 55.83 55.85 55.82 55.91 56.61 56.26 55.87 55.91 55.88 55.79 55.88 56.02 56.72 56.77 55.54 55.45 55.51 55.65 55.68 55.75 55.78 55.9 55.84 55.87 55.81 55.87 55.85 55.82 55.89 55.79 55.82 55.7 55.71 55.65 55.64 55.6 55.54 55.34 55.29 55.25 55.29 55.28 55.17 55.19 55.14 55.27 55.42 55.58 57.02 56.86 56.1 56.12 56.16 56.17 56.18 56.19 56.93 56.08 56.09 56.09 56.1 56.16 56.19 56.74 56.96 56.22 55.46 55.59 55.62 55.72 55.86 55.72 55.83 55.92 55.94 55.91 55.81 55.7 55.79 55.93 55.73 55.67 55.49 55.81 55.59 55.64 55.53 55.25 54.85 53.5 53.5 54.05 54.57 54.33 54.94 55.64 55.84 55.52 54.44 54.56 54.83 55.19 55.32 54.78 55.24 54.98 54.31 53.03 52.14 52.02 52.04 52.07 52.08 52.07 52.06 52.06 52.06 52.05 52.05 52.05 52.09 52.48 54.01 54.57 54.69 54.98 55.73 56.05 56.58 58.63 63.37 63.51 63.71 64.34 64.48 64.51 64.9 64.87 65.1 65.65 65.97 66.14 66.4 66.77 67.13 67.88 68.13 68.49 68.76 69.11 69.32 69.43 69.52 69.76 69.36 69.61 69.63 69.27 69.59 69.66 69.48 69.35 69.2 69.28 69.86 70.79 71.59 72.5 73.22 73.42 73.31 73.22 73.02 72.83 72.68 72.47 72.26 72.17 72.08 71.96 71.82 71.71 71.47 71.34 71.5 71.87 72.24 72.65 73.15 73.59 73.97 74.49 74.79 74.71 73.98 75.27 74.15 71.78 71.53 71.94 72.85 72.93 73.15 73.16 73.17 73.15 73.49 73.55 73.67 73.76 73.89 73.85 74.13 74.33 74.45 74.49 74.87 75.08 74.95 75.44 74.92 74.05 72.44 71.83 71.15 69.18 72.17 72.91 72.91 72.98 73.53 73.31 73.22 73.33 73.46 73.63 73.43 73.57 73.57 73.41 73.38 73.18 72.61 72.13 71.57 71.14 71.24 72.72 72.92 74.18 74.93 74.71 74.99 74.91 74.94 74.88 74.93 74.97 74.95 74.97 75.04 75.06 75.13 75.11 75.09 75.2 75.17 75 74.69 74.54 74.31 74.31 74.33 74.38 74.47 74.46 74.45 74.38 74.37 74.52 74.52 74.52 74.52 74.5 74.42 74.27 74.18 74.04 73.8 73.61 73.41 73.39 73.25 73.19 72.57 73.04 73.11 -9999 -9999 -9999 -9999 -9999 -9999 -9999 -9999 -9999
-9999 -9999 -9999 -9999 63.08 63.48 63.5 63.47 63.46 63.44 63.29 63.14 63.13 62.83 62.72 62.68 62.71 62.8 62.84 62.89 62.88 62.91 62.84 62.71 62.77 63.28 62.79 61.47 60.64 60.14 62.09 62.12 60.32 57.95 58.31 59.29 60.72 60.74 60.87 60.4 59.25 56.62 55.73 55.54 55.52 55.57 55.53 55.41 55.34 55.36 55.27 55.06 54.99 54.92 54.97 54.94 54.93 54.91 54.89 54.88 54.91 55.01 55.06 55.08 54.92 54.89 54.83 55.07 54.95 54.9 54.93 54.93 54.9 54.91 55.19 55.83 55.57 55.26 55.52 57.09 56.74 55.99 55.98 56.01 56 55.98 55.93 56.02 56.03 55.97 55.98 56.02 55.98 55.97 56.05 56.69 56.47 56.19 56 55.95 55.96 55.69 55.6 55.52 55.38 55.45 54.73 55.56 55.9 55.93 55.94 55.92 56.09 56.18 56.18 54.7 54.79 54.73 54.81 54.75 54.69 55 54.84 55.77 56.18 56.15 56.28 56.68 56.52 56.14 55.82 55.83 55.85 55.86 55.81 55.92 56.63 55.88 55.86 55.86 55.88 55.86 55.87 56.81 56.79 55.91 55.62 55.72 55.63 55.69 55.72 55.68 55.78 55.83 55.85 55.58 55.79 55.66 55.54 55.66 55.75 55.54 55.67 55.7 55.55 55.78 55.73 55.78 55.47 55.35 55.4 55.29 55.34 55.24 55.28 55.26 55.24 55.3 55.55 57.04 56.93 56.12 56.12 56.14 56.16 56.19 56.22 56.67 56.16 56.13 56.14 56.14 56.14 56.14 56.19 56.9 56.64 55.52 55.57 55.58 55.7 55.7 55.81 55.85 55.82 55.86 55.92 55.84 55.61 55.69 55.83 55.8 55.59 55.62 55.7 55.8 55.53 55.45 55.34 55.09 54.25 52.99 53.21 54.49 54.72 54.99 55.48 55.67 55.74 54.5 54.73 54.9 55.09 55.7 54.97 55.05 55.15 54.47 53.16 52.41 52.08 52.02 52.01 52.04 52.06 52.07 52.07 52.06 52.05 52.04 52.04 52.09 52.08 53.45 54.39 54.97 54.66 55.2 55.81 56.34 57.21 59.96 63.56 63.77 63.72 64.29 64.61 64.88 64.93 64.92 65.57 65.79 66.02 66.36 66.5 66.76 67.05 67.63 68.04 68.49 68.77 69.07 69.34 69.59 69.84 70.05 69.96 69.98 69.94 70.28 70.59 70.57 70.47 69.29 69.06 69.35 69.7 70.76 71.61 72.44 73.37 73.86 73.99 73.84 73.71 73.57 73.46 73.31 73.13 73.04 72.8 72.7 72.48 72.3 72.13 71.83 71.84 72.26 72.66 73.13 73.48 73.92 74.3 74.71 74.84 72.89 71.81 72.93 71.99 71.6 72.28 73.65 73.44 73.39 73.26 73.41 73.34 73.47 73.44 73.66 73.83 73.97 74.29 74.47 74.57 74.84 74.99 75.06 75.31 75.37 74.5 73.65 72.49 72.37 69.8 67.87 67.58 69.45 70.35 72.16 72.94 73.09 73.71 74 73.59 73.88 73.75 73.61 73.34 73 72.75 72.5 72.18 71.97 71.4 70.98 70.89 70.88 71.39 72.08 72.36 72.81 74.75 75.03 74.99 74.94 75.01 74.95 74.96 75.01 74.94 75 74.95 75.02 75.03 75.08 75.14 75.12 75.11 75.14 75.14 75.08 74.63 74.33 74.26 74.3 74.33 74.24 74.28 74.44 74.48 74.44 74.4 74.44 74.46 74.42 74.34 74.23 74.16 73.94 73.76 73.64 73.45 73.32 73.27 72.73 73.03 73.04 73.15 -9999 -9999 -9999 -9999 -9999 -9999 -9999 -9999 -9999
-9999 -9999 -9999 -9999 63.09 63.34 63.35 63.29 63.27 63.22 63.15 63.12 62.84 62.67 62.62 62.78 62.71 62.65 62.76 62.84 62.82 62.93 63.18 62.9 62.7 62.22 61.53 60.64 60.18 61.95 62.12 60.63 58.13 57.98 59.25 60.87 60.76 60.84 60.5 59.66 56.98 55.85 55.72 55.6 55.57 55.56 55.37 55.38 55.27 55.29 55.17 55.26 54.88 54.9 54.95 54.89 54.82 54.92 54.95 54.92 55.21 54.92 55.1 55.02 54.95 54.92 55.39 54.96 54.91 54.93 54.91 54.9 54.91 54.96 56.02 55.98 55.86 55.22 56.89 56.85 56.07 55.99 55.96 55.96 55.97 55.97 55.92 56.01 56.01 55.98 56.01 55.96 56.03 56.01 56.66 56.6 56.51 56.3 56.07 55.89 56.02 55.87 55.8 55.49 55.57 55.27 55.03 56.13 55.87 55.92 55.92 56 56.12 56.23 54.92 54.69 54.69 54.72 54.68 54.64 54.21 54.38 54.89 54.73 55.05 56.27 56.62 56.71 56.7 55.86 55.76 55.78 55.81 55.85 55.82 56.74 55.89 55.87 55.87 55.86 55.85 55.85 56.21 56.74 56.06 55.61 55.76 55.73 55.8 55.79 55.86 55.75 55.81 55.81 55.7 55.66 55.68 55.6 55.6 55.71 55.63 55.57 55.53 55.54 55.62 55.67 55.68 55.69 55.43 55.32 55.34 55.33 55.4 55.27 55.32 55.32 55.3 55.39 56.82 56.97 56.54 56.11 56.17 56.22 56.23 56.23 56.24 56.87 56.22 56.16 56.14 56.13 56.14 56.18 56.87 57.01 55.65 55.46 55.61 55.69 55.59 55.69 55.85 55.76 55.78 55.85 55.85 55.76 55.45 55.85 55.74 55.69 55.66 55.59 55.85 55.61 55.44 55.33 55.15 54.94 54.41 54.42 54.61 54.92 55.01 55.47 55.5 55.63 54.83 54.64 55.19 55.16 55.74 55.32 54.65 55.17 54.92 53.21 52.43 52.04 52.06 52.07 52.02 52.07 52.03 52.05 52.07 52.06 52.06 52.05 52.04 52.08 52.6 54.27 54.45 54.89 55.01 55.7 55.92 56.52 58.33 61.39 63.73 63.85 63.58 64.41 64.72 64.95 64.98 64.94 65.88 66.21 66.21 66.35 66.49 66.92 67.18 67.56 67.91 68.44 68.61 69.01 69.36 69.69 69.97 69.98 70.11 70.36 70.51 71.07 71.37 71.32 71.34 69.22 68.4 68.24 69.31 70.75 71.34 71.17 71.89 72.37 73.09 73.89 74.29 74.2 74.08 74 73.84 73.76 73.66 73.51 73.32 72.93 72.83 72.53 72.45 72.73 73.05 73.42 73.79 74.33 74.64 74.87 72.75 71.61 71.56 71.64 71.68 72.42 74.26 74.32 73.92 73.6 73.47 73.58 73.64 73.79 73.91 74.13 74.18 74.44 74.7 74.96 75.13 75.21 75.44 74.81 73.58 72.53 67.11 66.37 66.33 66.24 66.62 66.83 67.32 69.33 72.13 74.07 73.3 73.15 73.75 74.11 74.08 73.77 73.35 73.01 72.58 72.15 71.71 71.45 71 70.84 70.85 70.58 70.53 70.83 72.41 73.43 73.73 71.61 73.6 75.09 74.97 74.99 75.04 75.03 75.05 75.04 75.12 75.05 75.02 75.05 75.06 75.03 75.01 75.02 75.05 75.15 75.07 75.1 75.06 75.02 75 74.32 74.12 74.35 74.5 74.39 74.5 74.34 74.29 74.33 74.29 74.3 74.24 74.14 74.06 73.88 73.72 73.53 73.38 73.3 73.01 73.09 73.12 73.28 73.24 -9999 -9999 -9999 -9999 -9999 -9999 -9999 -9999 -9999
-9999 -9999 -9999 -9999 63.05 63.15 63.21 63.12 63.09 63.02 63.1 62.83 62.59 62.58 62.76 62.68 62.65 62.67 62.66 62.75 62.58 63.16 63.14 62.84 62.64 61.92 60.92 60.29 61.63 62.13 61.06 58.4 57.88 58.75 60.88 60.81 60.79 60.51 59.94 57.32 55.86 55.53 55.52 55.59 55.66 55.41 55.45 55.24 55.26 55.22 55.1 54.98 54.89 54.9 54.94 54.96 54.96 54.88 54.9 54.84 54.94 54.91 55.04 55.04 54.99 54.91 55.22 55.06 54.91 54.91 54.93 54.88 54.9 55.74 55.98 55.81 55.57 56.4 56.71 56.54 55.99 56 55.98 55.98 55.99 56.14 56.98 55.94 55.97 55.99 56.03 56.05 56.03 56.14 56.65 56.48 56.34 56.2 56.09 55.97 56 56 55.73 55.54 55.47 55.53 55.73 56 55.98 55.93 55.95 56.11 56.15 55.87 54.77 54.65 54.65 54.63 54.7 54.09 54.13 54.15 54.63 54.61 54.9 56.09 56.85 56.72 56.36 55.83 55.81 55.79 55.77 55.89 56.46 56.34 55.88 55.88 55.87 55.87 55.87 55.84 56.69 56.72 55.5 55.59 55.64 55.79 55.63 55.82 55.8 55.79 55.8 55.66 55.52 55.55 55.58 55.62 55.63 55.63 55.52 55.45 55.65 55.62 55.72 55.68 55.68 55.62 55.4 55.3 55.35 55.35 55.37 55.31 55.28 55.33 55.33 56.52 56.97 56.88 56.15 56.21 56.23 56.27 56.31 56.23 56.9 56.21 56.13 56.15 56.16 56.18 56.18 56.85 56.93 56.25 55.46 55.48 55.5 55.28 55.73 55.65 55.73 55.78 55.71 55.82 55.74 55.63 55.76 55.96 55.75 55.68 55.62 55.72 55.7 55.59 55.33 55.22 55.07 55.09 54.24 54.53 54.97 55.13 55.29 55.48 55.66 55.32 54.66 55.16 55.43 55.77 55.73 54.7 55.22 54.71 53.34 52.72 52.04 52.05 52.04 52.05 52.07 52.02 52.08 52.09 52.05 52.07 52.06 52.05 52.06 52.24 53.52 54.35 54.83 54.74 55.37 55.88 56.57 57.65 60.23 63.23 63.92 64.07 64.46 64.99 65 65.15 65.03 65.26 66.06 66.39 66.53 66.6 66.57 66.85 67.03 67.31 67.62 68.13 68.28 68.86 69.03 69.55 69.95 69.96 70.19 70.51 70.97 71.36 71.8 71.9 72.49 72.02 68.35 68.46 69.74 71.25 65.85 66.15 71.6 71.52 71.49 71.82 72.48 73.21 74.06 74.6 74.55 74.5 74.36 74.58 74.02 73.75 73.42 73.34 73.14 73.16 73.38 73.84 74.19 74.49 74.86 72.89 71.58 71.51 71.47 71.47 71.61 73.81 75.07 74.65 74.21 74.2 74.02 74.12 74.24 74.33 74.56 74.54 74.78 75.02 75.23 75.27 74.84 73.88 72.76 68.3 66.34 66.34 66.34 67.22 66.95 66.19 66.12 67.44 70.33 75.29 75.1 74.32 73.69 73.21 73.7 73.85 73.41 73.03 72.46 72.1 71.74 71.35 71.05 70.57 70.44 70.39 70.35 70.26 71.15 72.45 72.42 71.56 71.17 72.04 73.53 74.89 74.97 74.95 75.01 75.09 75.13 75.14 75.08 75.14 75.16 75.12 75.07 75.01 74.99 75.07 75 75.06 75.03 75.08 75.03 74.97 75 74.96 74.84 74.16 74.44 74.3 74.33 74.33 74.26 74.25 74.27 74.26 74.17 74.06 73.95 73.77 73.61 73.45 73.39 73.12 73.13 73.14 73.13 73.25 73.42 -9999 -9999 -9999 -9999 -9999 -9999 -9999 -9999 -9999
-9999 -9999 -9999 -9999 63.04 63 63.16 63.13 63.04 63.01 62.78 62.59 62.51 62.7 62.71 62.7 62.76 62.83 62.69 62.66 62.51 62.87 62.74 62.77 62.14 61.27 60.43 61.38 62.16 61.37 58.9 59.46 58.64 60.82 60.88 60.85 60.55 60.26 57.61 55.99 55.62 55.52 55.56 55.53 55.44 55.24 55.3 55.26 55.26 55.19 55.28 54.98 54.94 54.89 54.97 54.87 54.91 54.98 54.91 54.96 54.97 54.91 55.11 54.94 54.92 55.03 54.99 55.11 54.91 54.98 54.91 54.93 55.46 55.63 55.2 54.91 55.6 56.69 56.61 56.01 56 56.07 55.99 55.99 56.06 56.91 56.23 55.95 55.95 55.97 56.01 56.04 56.66 56.68 56.46 56.29 56.26 56.19 56.09 55.97 55.96 55.98 55.88 55.71 55.59 55.5 55.56 56.04 55.92 55.92 56.05 56.04 56.11 54.97 54.74 54.65 54.77 54.8 54.31 54.1 54.04 54.2 55.01 54.73 54.9 56.96 56.78 55.94 55.75 55.81 55.81 55.81 55.81 55.83 56.85 55.8 55.84 55.89 55.89 55.85 55.83 56.49 56.83 55.7 55.56 55.59 55.69 55.7 55.83 55.7 55.69 55.73 55.68 55.69 55.5 55.39 55.32 55.56 55.51 55.41 55.48 55.55 55.52 55.88 55.75 55.7 55.54 55.41 55.34 55.38 55.34 55.33 55.33 55.38 55.4 55.24 55.42 56.92 56.82 56.15 56.13 56.15 56.27 56.33 56.29 56.61 56.38 56.17 56.15 56.14 56.15 56.16 56.33 56.96 56.93 55.59 55.34 55.38 55.38 55.46 55.61 55.65 55.57 55.7 55.61 55.74 55.69 55.61 56.01 55.73 55.67 55.58 55.55 55.71 55.64 55.5 55.32 55.21 54.94 54.76 54.26 54.62 55.06 55.26 55.36 55.49 55.48 54.95 54.84 55.24 55.68 55.86 54.91 54.84 54.93 53.73 53.05 52.2 52.19 52.14 52.09 52.04 52.05 52.06 52.04 52.1 52.16 52.08 52.06 52.06 52.09 52.78 54.01 54.48 54.99 54.93 55.72 56.28 56.87 58.8 61.98 64.12 64.16 64.4 64.61 64.89 65.11 65.1 65.03 65.95 66.52 66.78 66.87 66.91 66.87 67.02 67.16 67.31 67.51 67.72 68.03 68.39 69.01 69.44 69.68 69.82 70.17 70.63 71.14 71.59 72.05 72.4 72.71 73.46 73.92 73.69 72.18 71.04 65.72 66.04 71.81 71.83 71.6 71.54 71.52 71.48 72 72.74 73.56 74.22 74.68 74.88 74.64 74.42 74.27 74.08 73.85 73.83 73.9 74.16 74.59 74.95 72.94 71.63 71.52 71.42 71.37 71.38 71.52 71.59 73.63 75.02 74.7 74.53 74.61 74.77 74.59 74.76 74.94 75.23 75.26 74.95 73.91 72.88 70.01 66.37 66.35 66.35 66.32 66.34 67.88 71.06 70.94 66.07 66.11 72.78 74.91 75.46 75.26 74.37 73.73 73.25 73.74 73.21 72.5 72.04 71.69 71.31 71.04 70.76 70.38 70.13 70.16 70.51 71.33 71.99 71.41 70.61 71.37 73.08 73.81 74.41 74.46 74.57 74.87 74.91 74.91 75 75.14 75.12 75.2 75.26 75.16 75.16 75.16 75.07 75.11 75.08 75.03 74.94 75.01 74.97 75.02 74.98 74.99 74.93 74.87 74.77 74.66 74.34 74.34 74.28 74.24 74.18 74.23 74.16 74.07 73.98 73.8 73.74 73.53 73.54 73.18 73.14 73.23 73.27 73.37 73.45 73.66 -9999 -9999 -9999 -9999 -9999 -9999 -9999 -9999 -9999
-9999 -9999 -9999 62.93 63.01 62.85 62.85 62.74 62.7 62.64 62.55 62.53 62.48 62.58 62.66 62.78 62.83 62.71 62.67 62.55 62.52 62.48 62.75 62.35 61.55 60.71 61.04 62.17 61.73 59.28 58.36 58.79 60.87 60.95 60.9 60.6 60.38 57.98 56.08 55.58 55.59 55.57 55.44 55.3 55.37 55.36 55.19 55.29 55.22 55.05 54.95 55.12 54.91 55.01 54.92 54.83 54.88 54.88 54.95 54.89 54.88 54.91 55.08 54.91 54.92 55.48 55.28 54.9 54.89 54.97 54.87 55.42 55.02 54.94 54.93 55.77 56.49 56.74 56.08 55.98 55.96 56.08 56.07 56.04 56.45 56.89 55.96 55.9 55.95 55.95 55.94 56.13 56.81 56.59 56.46 56.44 56.38 56.26 56.07 56.06 55.94 55.99 55.93 55.86 55.56 55.39 55.4 56.04 56 56.05 56.04 56.14 55.29 55.17 55.03 55.13 55.41 54.41 53.89 54.03 54.1 54.34 54.64 54.73 56.15 56.96 56.75 55.82 55.77 55.79 55.79 55.79 55.83 55.88 55.88 55.86 55.81 55.83 55.87 55.93 56.49 56.84 56.91 55.61 55.56 55.69 55.63 55.62 55.56 55.53 55.67 55.67 55.79 55.61 55.64 55.32 55.28 55.4 55.31 55.26 55.41 55.45 55.57 55.62 55.66 55.54 55.32 55.39 55.42 55.46 55.44 55.36 55.33 55.31 55.22 55.2 56.57 56.85 56.62 56.13 56.13 56.13 56.15 56.27 56.39 56.93 56.16 56.17 56.12 56.13 56.16 56.17 56.9 56.98 56.48 55.48 55.43 55.41 55.29 55.34 55.43 55.48 55.33 55.55 55.58 55.74 55.62 55.84 55.82 55.61 55.58 55.6 55.88 55.64 55.6 55.38 55.21 55.05 55.03 54.38 54.44 54.95 55.23 55.21 55.42 55.43 55.22 54.94 54.93 55.3 55.31 55.41 54.58 54.57 53.89 53.01 52.48 52.16 52.16 52.17 52.17 52.13 52.08 52.05 52.06 52.05 52.11 52.18 52.17 52.05 52.6 52.91 54.2 54.82 54.86 55.38 56.13 56.66 57.63 60.61 64.02 64.2 64.17 64.55 64.73 65.05 65.15 65.07 65.06 66.21 66.58 66.78 67 67.14 67.24 67.25 67.37 67.46 67.58 67.71 68.11 68.44 68.87 69.21 69.44 69.67 69.9 70.38 71.07 71.61 72.03 72.57 72.99 73.58 73.95 73.99 72.66 70.79 65.54 65.58 71.37 71.57 71.91 71.78 71.7 71.62 71.55 71.49 71.49 71.87 72.93 73.66 74.55 74.85 74.88 74.8 74.6 74.37 74.36 74.65 74.94 73.78 71.64 71.55 71.44 71.42 71.33 71.35 71.43 71.45 71.58 73.55 74.98 74.98 74.89 74.98 75.12 75.13 75.07 74.36 72.97 70.74 66.33 66.32 66.31 66.3 66.35 66.38 72.14 72.87 72.55 70.6 67.43 66.06 67.42 73.25 75.3 75.27 75.01 74.2 73.5 73.18 72.83 72.25 71.77 71.23 70.99 70.73 70.43 70.12 70.42 70.44 71.58 70.87 70.65 70.73 71.42 72.48 73.34 73.38 73.47 73.79 74.14 74.46 74.8 74.85 74.98 74.95 75.03 75.09 75.1 75.2 75.2 75.29 75.21 75.2 75.13 75.19 75.08 75.03 74.99 74.98 74.93 74.92 74.99 75.03 74.94 74.78 74.69 74.41 75.09 74.55 74.21 74.18 74.19 74.07 74 73.95 73.81 73.63 73.55 73.3 73.28 73.29 73.3 73.46 73.67 73.73 73.86 -9999 -9999 -9999 -9999 -9999 -9999 -9999 -9999 -9999
-9999 -9999 -9999 62.81 62.8 62.76 62.7 62.61 62.54 62.53 62.53 62.42 62.51 62.66 62.51 62.66 62.75 62.65 62.77 63.43 63.5 62.78 62.44 61.88 60.92 60.82 62.15 61.93 59.52 58.7 58.68 60.5 60.99 60.92 60.69 60.52 58.3 56.19 55.61 55.54 55.53 55.44 55.24 55.36 55.36 55.32 55.19 55.22 55.1 54.99 55.11 54.91 54.9 55.02 54.92 54.9 54.9 54.88 54.89 55.03 55.08 54.91 55.14 54.95 55.06 55.25 55.26 54.96 54.91 54.9 54.9 54.89 54.92 55 54.99 56.52 56.57 56.6 56.01 56.04 56.02 56 56.01 56.02 57.07 56 55.97 55.96 55.99 55.94 56.12 56.23 56.56 56.32 56.64 56.42 56.4 56.34 56.36 56.27 55.89 55.84 55.98 55.65 55.56 55.38 55.93 55.97 56 56 56.15 56.08 55.15 55.02 55.27 55.28 55.28 55.29 54.6 53.96 54.08 54.07 54.33 54.97 56.72 56.76 56 55.8 55.8 55.8 55.78 55.83 55.89 55.86 55.87 55.86 55.84 55.82 55.84 55.8 56.97 56.88 56.15 55.56 55.61 55.59 55.62 55.58 55.43 55.5 55.61 55.86 55.83 55.69 55.58 55.44 55.4 55.23 55.29 55.24 55.41 55.46 55.61 55.63 55.61 55.5 55.49 55.35 55.43 55.43 55.36 55.39 55.37 55.27 55.36 55.58 56.84 56.86 56.17 56.18 56.14 56.11 56.11 56.14 57.04 56.17 56.17 56.15 56.14 56.12 56.13 56.73 56.97 56.32 55.53 55.34 55.35 55.31 55.36 55.34 55.34 55.33 55.43 55.65 55.58 55.62 55.77 55.87 55.69 55.61 55.53 55.71 55.81 55.61 55.53 55.37 55.21 55 54.89 54.33 54.68 55.15 55.29 55.47 55.12 55.27 55.07 54.89 54.99 54.89 54.88 54.35 54.24 54.2 52.88 52.52 52.11 52.1 52.12 52.13 52.15 52.16 52.14 52.11 52.07 52.05 52.07 52.13 52.19 52.29 52.87 53.05 54.19 54.95 55 55.9 56.42 57.01 59.77 62.98 63.96 64.28 64.7 64.66 64.66 65.19 65.22 65.11 65.32 66.18 66.39 66.58 66.89 67.13 67.41 67.43 67.57 67.69 67.83 68 68.19 68.5 68.89 69.12 69.52 69.78 69.31 69.83 70.28 71.01 71.75 72.37 73.16 73.7 73.98 74.02 73.6 71.3 65.39 65.28 68.35 70.16 72.6 72.64 72.15 71.89 71.8 71.67 71.63 71.58 71.52 71.45 71.93 72.89 73.82 74.61 75.04 75.09 74.85 74.96 73.34 71.68 71.6 71.46 71.42 71.29 71.22 71.31 71.31 71.34 71.39 71.49 73.56 74.94 74.88 74.7 73.89 73.41 72.08 66.3 66.33 66.29 66.26 66.32 66.35 69.28 72.85 74.02 75.35 74.89 71.89 68.18 66.11 66.04 71.13 73.72 75.32 75.13 74.68 74.13 73.25 72.91 72.35 71.8 71.24 70.84 70.53 70.38 70.83 71.66 71.57 70.37 70.22 71.1 72.32 72.69 72.56 72.72 72.94 73.08 73.37 73.61 73.95 74.33 74.72 74.81 74.92 74.95 75 75.03 75.1 75.1 75.14 75.19 75.19 75.26 75.25 75.25 75.19 75.09 75.15 75.07 74.98 74.96 74.99 74.99 74.93 74.87 74.72 74.55 74.38 74.23 74.37 74.6 74.38 74.08 74.01 73.94 73.75 73.64 73.34 73.25 73.28 73.35 73.43 73.62 73.74 73.93 74.04 -9999 -9999 -9999 -9999 -9999 -9999 -9999 -9999 -9999
-9999 -9999 -9999 62.83 62.78 62.75 62.69 62.64 62.59 62.59 62.54 62.49 62.6 62.6 62.69 62.59 62.61 62.56 63.9 64.14 63.63 62.89 62.17 61.26 60.93 62.2 62.12 59.81 58.48 58.62 60.33 61.04 60.98 60.84 60.58 58.67 56.32 55.64 55.63 55.49 55.35 55.28 55.42 55.47 55.38 55.28 55.2 55.06 55.01 55.18 54.92 54.84 54.95 54.89 54.97 54.86 54.87 54.9 54.92 55.57 55.54 55.5 55.12 54.96 55.49 55.38 54.88 54.92 54.95 54.97 54.95 54.95 54.93 54.94 55.41 56.87 56.68 55.99 55.98 55.99 55.99 55.99 56.01 56.94 56.55 56.02 55.96 55.96 55.97 55.96 55.91 56.64 56.66 57.04 56.83 56.71 56.66 56.52 56.57 55.18 55.24 55.87 55.76 55.54 55.42 55.6 55.88 55.92 55.63 56.03 56.12 55.23 55.28 55.19 55.25 55.21 55.24 55.26 55.25 55.03 54.14 54.03 54.2 56.3 56.78 56.59 55.84 55.77 55.81 55.87 55.89 55.9 56.77 55.87 55.86 55.87 55.85 55.9 55.85 56.93 56.97 56.22 55.61 55.44 55.54 55.53 55.55 55.62 55.51 55.55 55.61 55.67 55.76 55.69 55.48 55.29 55.3 55.24 55.29 55.33 55.42 55.62 55.71 55.71 55.62 55.62 55.41 55.46 55.5 55.42 55.3 55.33 55.4 55.39 55.46 56.84 56.9 56.13 56.14 56.18 56.19 56.16 56.11 56.52 56.66 56.13 56.15 56.18 56.14 56.13 56.1 56.88 56.9 56.37 55.68 55.54 55.45 55.44 55.44 55.47 55.48 55.38 55.42 55.46 55.56 55.55 55.79 55.67 55.66 55.6 55.56 55.8 55.71 55.55 55.47 55.33 55.16 55.08 54.51 54.65 55.06 55.39 55.33 54.55 55 55.24 54.75 55.09 55.27 55.59 54.61 54.13 54.07 53.07 52.27 52.09 52.06 52.04 52.05 52.1 52.1 52.12 52.14 52.15 52.12 52.09 52.06 52.06 52.08 52.63 52.8 53.43 54.36 54.99 55.68 56.21 56.77 58.29 61.32 63.69 64.12 64.36 64.82 64.88 65.09 65.29 65.28 65.19 65.83 66.15 66.35 66.47 66.8 67.01 67.1 67.31 67.66 67.92 68.11 68.26 68.35 68.8 69.03 69.16 69.41 69.86 68.86 69.44 69.82 70.33 71.07 71.92 72.78 73.52 73.96 74.03 74.14 71.88 65.28 65.28 66.75 69.08 72.36 75.47 75.23 74.26 73.23 72.32 72.02 71.83 71.73 71.65 71.68 71.52 71.47 71.78 72.84 73.81 74.02 73.47 71.71 71.61 71.48 71.4 71.31 71.18 71.06 71.13 71.16 71.21 71.24 71.33 71.78 72.67 73.07 73.27 66.68 66.36 66.32 66.31 66.31 66.32 66.36 72.57 73.89 75.13 76.49 77.72 77.9 74.2 71.25 68.08 66.09 66.04 71.18 74.08 75.18 74.85 74.5 73.9 73.19 72.77 72.16 71.6 71.2 71.29 71.78 71.86 70.88 69.97 70.18 71.4 71.51 72.2 72.27 72.34 72.18 72.37 72.69 72.86 73.21 73.6 73.97 74.34 74.6 74.84 74.89 74.99 75.07 75.13 75.12 75.13 75.21 75.2 75.14 75.25 75.22 75.25 75.25 75.18 75.14 75.12 75.1 75.08 74.98 74.96 74.96 74.93 74.87 74.75 74.52 74.26 74.05 73.9 73.91 74.3 74.51 73.89 73.83 72.76 73.39 73.27 73.3 73.37 73.44 73.59 73.77 73.96 74.15 -9999 -9999 -9999 -9999 -9999 -9999 -9999 -9999 -9999
-9999 -9999 -9999 63.06 63.08 63.07 62.76 62.72 62.66 62.61 62.56 62.54 62.58 62.73 62.66 62.51 62.47 63.37 63.89 63.93 63.54 62.84 61.77 61.03 62.18 62.13 60.1 58.29 58.29 60.24 61.11 61.02 60.99 60.62 59.07 56.63 55.74 55.59 55.57 55.47 55.36 55.41 55.42 55.39 55.42 55.15 55.21 55.1 54.97 54.96 54.93 54.92 54.98 54.93 54.9 55.02 55.01 54.85 54.86 55.48 54.91 55.08 55.67 55.66 55.47 54.93 54.95 54.95 54.84 54.94 54.9 56.79 55.1 56.38 56.88 56.71 56.32 55.97 55.99 56.03 56.05 56.06 56.2 56.91 56.11 55.97 55.95 55.96 55.95 56.01 56.66 56.59 56.82 57.08 56.95 56.9 57.15 56.58 56.35 55.46 55 55.33 55.57 55.49 55.32 55.91 55.78 55.86 56.03 56.05 55.81 55.15 55.46 56.39 55.53 55.24 55.27 55.27 55.3 55.28 55.16 54.01 55.33 56.94 56.77 55.86 55.75 55.76 55.77 55.84 55.84 56.73 55.91 55.78 55.82 55.85 55.86 55.8 56.46 56.92 56.89 55.51 55.44 55.4 55.35 55.57 55.6 55.63 55.57 55.53 55.57 55.64 55.58 55.39 55.35 55.21 55.24 55.2 55.32 55.46 55.49 55.61 55.63 55.57 55.59 55.36 55.41 55.37 55.52 55.49 55.44 55.26 55.33 55.44 56.18 56.87 56.7 56.14 56.14 56.1 56.14 56.17 56.21 56.96 56.12 56.15 56.1 56.14 56.15 56.17 56.91 56.91 56.32 55.48 55.48 55.62 55.65 55.64 55.62 55.69 55.68 55.66 55.56 55.49 55.37 55.52 55.78 55.62 55.61 55.44 55.86 55.69 55.64 55.46 55.44 55.3 55.22 55.03 54.33 54.91 55.26 55.4 54.68 54.96 55.47 54.95 54.64 55.24 55.48 54.82 54.27 54.1 53.57 52.29 52.08 52.09 52.07 52.06 52.05 52.07 52.06 52.1 52.05 52.11 52.13 52.12 52.09 52.04 52.75 52.95 53.11 53.76 54.81 55.19 55.95 56.57 57.06 59.96 63.16 63.8 64.31 64.29 64.67 64.94 65.23 65.28 65.2 65.19 65.85 66.03 66.16 66.37 66.63 66.76 67 67.18 67.42 67.6 68.1 68.37 68.54 68.74 69.02 69.4 69.44 69.94 68.67 69.18 69.6 70.08 70.73 71.22 71.93 72.45 73.1 73.9 74.08 72.25 65.3 65.29 66.14 68.2 72.02 75.1 77.92 77.73 76.7 75.92 74.74 73.75 72.77 72.27 71.85 71.76 71.66 71.6 71.54 71.5 71.62 72.22 71.67 71.52 71.45 71.37 71.21 71.04 70.95 70.76 70.64 71 71.04 68.6 67.69 67.29 66.97 66.8 66.5 66.31 66.33 66.33 76.46 73.65 74.1 76.39 77.63 78.74 79.19 79.14 77.65 73.68 70.59 68.44 66.11 66.03 71.64 74.57 75.21 74.72 74.38 73.56 73.13 72.58 72.22 73.06 72.32 71.99 70.62 70.18 70.98 71.9 71.89 71.78 71.8 71.81 71.81 71.8 71.95 72.1 72.35 72.78 73.24 73.65 74 74.45 74.72 74.83 74.93 74.99 75.02 75.16 75.16 75.16 75.22 75.13 75.13 75.13 75.14 75.15 75.23 75.32 75.29 75.19 75.18 75.22 75.11 75.06 75.06 75.02 74.93 74.84 74.65 74.41 74.15 73.97 73.85 73.8 73.82 73.87 73.82 73.5 73.39 73.18 73.29 73.38 73.41 73.57 73.69 74.03 74.17 -9999 -9999 -9999 -9999 -9999 -9999 -9999 -9999 -9999
-9999 -9999 -9999 63.16 63.17 63.22 62.82 62.75 62.71 62.68 62.63 62.6 62.62 62.6 62.75 62.56 62.91 62.84 63.64 63.83 63.3 62.09 61.24 62.23 62.15 60.27 58.37 58.13 59.83 61.12 61.02 61.13 60.65 59.21 56.81 55.8 55.69 55.52 55.52 55.47 55.32 55.32 55.44 55.31 55.21 55.11 55.16 55.12 54.94 54.95 54.93 54.83 54.87 54.91 54.91 55 54.93 54.83 55.51 55.08 54.94 55.01 54.95 54.97 54.92 54.89 54.91 54.95 54.89 54.94 56.39 56.68 56.69 56.79 56.84 56.67 55.97 55.97 55.98 55.97 56.02 56.01 56.91 56.1 55.94 55.95 55.96 55.98 56.01 56.47 56.6 56.27 56.13 56.88 56.83 56.89 57.01 56.11 55.63 55.4 54.82 55.25 55.44 55.38 55.88 55.93 55.89 55.96 56.04 56.07 54.85 54.83 54.81 54.84 55.48 55.83 55.35 55.3 55.21 55.47 55.26 54.7 56.87 56.81 56.07 55.79 55.78 55.8 55.82 55.76 55.98 56.63 55.83 55.77 55.79 55.79 55.83 55.85 56.78 56.72 56.19 55.35 55.46 55.32 55.28 55.41 55.49 55.52 55.43 55.31 55.32 55.34 55.24 55.11 55.33 55.15 55.14 55.21 55.37 55.42 55.53 55.61 55.61 55.47 55.42 55.4 55.35 55.5 55.53 55.55 55.55 55.44 55.42 55.69 56.82 56.78 56.15 56.14 56.13 56.18 56.15 56.1 56.93 56.15 56.13 56.1 56.14 56.12 56.15 56.77 57.01 56.82 54.99 54.81 55.22 55.28 55.45 55.65 55.8 55.7 55.7 55.67 55.65 55.51 55.62 55.67 55.72 55.63 55.6 55.65 55.66 55.68 55.54 55.46 55.34 55.27 55.08 54.51 54.51 55.02 55.06 54.8 54.5 55.42 55.57 54.26 55.02 55.41 54.94 54.12 53.91 53.79 52.75 52.05 52.05 52.09 52.09 52.07 52.05 52.07 52.12 52.06 52.08 52.1 52.04 52.04 52.11 52.33 53.38 53.58 53.91 54.56 55 55.87 56.34 56.88 58.72 62.06 63.66 63.89 64.11 64.38 64.56 64.91 65.31 65.32 65.25 65.3 65.78 66.01 66.03 66.25 66.5 66.65 66.94 67.21 67.4 67.63 67.94 68.23 68.61 68.71 69.17 69.59 69.62 69.81 68.65 68.61 69.22 69.88 70.52 71.09 71.61 72.11 72.76 73.48 73.98 72.58 68.84 65.25 65.27 67.44 71.25 74.37 78.11 78.9 79.03 78.87 78.52 77.41 76.18 75.59 77.18 76.64 75.58 71.9 71.81 71.68 71.64 71.58 71.54 71.46 71.53 71.49 71.16 70.93 70.86 70.63 70.28 69.69 69.09 68.4 67.13 67.03 66.97 66.91 66.59 76.16 77.12 77.67 77.95 77.55 78.51 78.95 78.77 78.54 80.02 79.31 77.11 73.27 69.96 67.52 66.09 66.06 72.15 74.96 75.21 74.76 74.06 73.32 73.21 74.06 72.67 71.31 71.26 72.34 72.29 72.21 72.04 71.9 71.83 71.79 71.57 71.75 71.63 71.77 71.83 72.01 72.35 72.8 73.28 73.71 74.1 74.45 74.68 74.8 74.9 75.01 75.14 75.19 75.11 75.22 75.23 75.15 75.21 75.13 75.14 75.13 75.14 75.16 75.24 75.26 75.35 75.3 75.18 75.14 75.11 75.09 75.06 74.92 74.68 74.55 74.32 74.07 73.89 73.73 73.72 73.81 73.78 73.37 73.51 73.44 73.36 73.4 73.44 73.57 73.69 73.91 74.13 -9999 -9999 -9999 -9999 -9999 -9999 -9999 -9999 -9999
-9999 -9999 -9999 63.12 63.12 63.2 62.84 62.77 62.76 62.74 62.71 62.7 62.68 62.67 62.66 62.71 63.75 63.4 63.54 63.88 62.53 61.47 62.08 62.16 60.64 58.47 58.25 59.4 61.24 61.1 61.13 60.67 59.77 57.24 55.8 55.65 55.57 55.52 55.41 55.31 55.3 55.49 55.4 55.33 55.15 55.25 55.15 55.14 54.98 54.88 54.92 54.8 54.94 54.95 55.15 55.23 54.88 54.92 55.55 54.96 54.99 54.96 54.96 54.95 54.98 54.91 54.97 54.9 54.99 56.63 56.62 56.59 56.59 56.73 56.73 55.98 56.06 56.05 56.03 55.99 56 56.72 56.67 55.97 55.96 55.92 55.96 55.99 55.97 56.58 56.54 54.94 54.85 55.38 56.74 56.95 56.81 57.13 55.52 55.29 54.31 55.02 55.25 55.19 55.93 55.89 55.9 56.03 56.02 54.98 54.77 54.91 54.89 54.89 54.85 55 55.97 56.29 55.21 55.81 56.24 56.38 56.94 56.72 55.86 55.86 55.85 55.83 55.79 55.88 56.76 55.84 55.81 55.78 55.8 55.83 55.85 56.84 57.05 56.35 55.9 55.44 55.31 55.23 55.23 55.25 55.32 55.2 55.19 55.11 55.31 55.24 55.12 55.18 55.25 55.22 55.22 55.29 55.29 55.59 55.6 55.67 55.59 55.48 55.51 55.47 55.41 55.5 55.54 55.51 55.53 55.62 55.5 56.68 56.82 56.19 56.15 56.1 56.14 56.15 56.14 56.21 56.83 56.14 56.15 56.14 56.17 56.17 56.09 56.98 57.08 56.67 55.2 55.1 55.01 55.06 55.33 55.56 55.71 55.75 55.81 55.62 55.57 55.58 55.76 55.72 55.74 55.61 55.58 56.14 55.71 55.67 55.47 55.29 55.31 55.28 55.27 54.22 54.65 54.87 54.46 54.76 55.37 55.41 55.03 55.01 55.46 55.14 54.89 54.02 53.83 53.11 52.22 52.07 52.07 52.06 52.09 52.08 52.06 52.04 52.09 52.16 52.07 52.07 52.09 52.09 52.07 53.21 53.79 54.18 54.41 55.07 55.42 56.17 56.7 57.79 60.84 63.32 63.64 64 64.27 64.52 64.73 64.96 65.33 65.32 65.31 65.57 65.75 65.73 65.96 66.2 66.31 66.49 66.88 67.05 67.19 67.45 67.94 68.12 68.34 68.65 69.24 69.49 69.74 70.3 68.45 68.49 69.05 69.73 70.35 70.98 71.5 72.12 72.77 73.41 73.9 73.05 70.74 65.25 65.47 66.82 70.6 73.66 77.56 79.14 79.23 78.36 78.36 78.42 78.66 78.49 78.31 77.99 77.7 77.29 76.92 75.9 71.89 71.8 71.74 71.64 71.6 71.52 71.49 70.88 70.79 68.5 66.51 66.37 66.35 66.54 66.83 66.97 74.98 76.95 77.54 77.91 78.23 78.37 78.74 78.49 78.21 78.32 78.17 78.59 79.83 79.1 76.46 73.13 69.39 67.57 66.06 66.12 72.67 75.39 75.09 74.67 73.86 73.26 73.26 73.8 73.05 73.03 73.4 73.03 72.89 72.41 71.93 71.71 71.66 71.61 69.25 71.64 71.45 71.63 71.82 72.09 72.52 72.89 73.44 73.84 74.1 74.44 74.68 74.82 74.95 75.05 75.11 75.14 75.2 75.19 75.3 75.26 75.22 75.22 75.18 75.14 75.09 75.16 75.21 75.1 75.22 75.25 75.33 75.25 75.27 75.16 75.15 75.05 74.9 74.68 74.44 74.17 73.94 73.8 73.74 73.77 73.85 73.23 73.51 73.45 73.44 73.53 73.39 73.63 73.7 73.89 74.1 -9999 -9999 -9999 -9999 -9999 -9999 -9999 -9999 -9999
-9999 -9999 -9999 61.69 61.73 61.97 62.07 63.17 63.13 62.96 62.94 62.94 62.88 62.8 62.77 63.51 63.14 63.04 63.91 64.14 61.6 61.89 62.15 60.81 58.55 58.3 59.23 61.21 61.14 61.06 60.7 60.05 57.58 55.93 55.71 55.6 55.48 55.46 55.35 55.33 55.38 55.49 55.18 55.22 55.24 55.36 55.12 54.96 55 54.99 54.87 54.97 54.9 55.02 55.03 55.08 54.92 55.33 55.22 54.96 54.92 54.93 54.94 54.95 54.95 54.93 54.97 54.94 54.97 56.66 56.53 56.65 56.63 56.66 56.22 56.01 56.04 56.03 56.04 56.02 56.1 56.95 56.03 55.97 55.96 55.96 55.94 55.96 56.47 56.54 55.22 54.45 54.48 55.06 55.54 56.78 56.61 56.62 55.71 54.41 54.08 54.88 54.91 55.94 55.84 55.86 56.06 56.04 55.77 54.8 54.74 54.88 54.89 54.91 54.84 54.83 54.78 54.88 55.6 56.12 56.53 56.9 56.79 55.89 55.82 55.83 55.85 55.86 55.82 56.52 56.14 55.8 55.81 55.82 55.81 55.85 56.06 56.9 56.65 55.7 55.66 55.37 55.29 55.34 55.09 55.04 55 54.95 55.02 55.08 55.18 55.14 55.11 55.22 55.33 55.24 55.32 55.45 55.4 55.73 55.77 55.66 55.57 55.64 55.57 55.6 55.47 55.48 55.46 55.42 55.61 55.69 56.19 56.79 56.74 56.18 56.19 56.13 56.12 56.12 56.15 57 56.14 56.15 56.13 56.16 56.16 56.13 56.91 57.02 56.2 55.26 55.06 55.16 55 55.03 55.25 55.55 55.66 55.71 55.69 55.61 55.48 55.75 55.85 55.73 55.78 55.62 55.84 55.77 55.76 55.6 55.56 55.41 55.23 55.17 54.62 54.23 54.72 54.47 55.01 55.41 55.41 55.37 54.95 55.51 55.37 54.94 54.87 53.73 53.08 52.26 52.01 52.01 52.02 52.09 52.07 52.1 52.07 52.06 52.06 52.12 52.2 52.09 52.08 52.08 52.93 53.58 54.21 54.28 54.8 55.3 55.96 56.54 57.35 60.09 62.54 63.15 63.58 64.12 64.4 64.74 64.94 65.09 65.43 65.34 65.33 65.71 65.73 65.81 65.88 65.96 66.31 66.64 66.72 66.89 67.06 67.3 67.59 67.85 68.13 68.54 68.98 69.25 69.7 70.18 68.61 68.53 68.94 69.68 70.17 70.83 71.49 71.98 72.61 73.28 73.89 73.54 71.26 65.32 65.34 66.7 69.81 73.02 76.81 78.88 78.53 76.97 77.1 77.64 77.92 78.14 78.13 77.2 77.88 78.51 78.26 77.95 77.94 78.05 76.92 71.92 71.86 71.75 71.65 71.64 70.75 66.34 66.34 66.34 66.34 76.5 78.15 78.27 78.26 78.35 77.65 77.51 77.06 76.98 77.7 76.84 76.39 76.94 78.54 79.76 80.12 79.03 75.78 72.62 68.93 66.5 66.06 66.12 73.17 75.5 74.92 74.37 73.7 73.18 73.6 73.5 74.19 73.77 73.35 73 72.44 72.31 71.85 71.51 71.41 71.6 69.66 71.31 71.45 71.49 71.57 72.03 72.6 73.01 73.46 73.82 74.17 74.49 74.71 74.76 75 75.06 75.17 75.18 75.23 75.19 75.24 75.27 75.2 75.22 75.22 75.22 75.14 75.14 75.16 75.14 75.14 75.1 75.14 75.24 75.26 75.26 75.22 75.15 75.11 74.87 74.62 74.37 74.07 73.93 73.8 73.83 73.72 73.42 73.51 73.42 73.41 73.39 73.51 73.64 73.61 73.76 74.04 -9999 -9999 -9999 -9999 -9999 -9999 -9999 -9999 -9999
-9999 -9999 -9999 61.6 61.62 61.61 61.59 61.73 62.91 62.91 62.9 62.83 62.84 62.79 63.21 64.37 62.61 63.38 63.59 62.38 61.65 62.19 61.11 58.8 58.42 59.29 61.17 61.19 61.08 60.74 60.43 57.97 56.2 55.61 55.53 55.51 55.37 55.46 55.33 55.45 55.37 55.35 55.39 55.16 55.32 55.32 55.03 54.99 54.95 54.9 54.87 54.89 54.85 54.93 54.99 54.86 54.84 55.67 54.94 55.06 54.89 54.92 54.88 54.86 55.06 54.96 54.95 55.63 55.47 55.82 56.41 56.44 56.67 56.67 56.05 56 56.04 56.03 56.02 56.01 56.91 56.01 55.97 55.93 55.99 55.96 55.99 56.26 56.46 55.92 54.49 54.19 54.23 54.23 54.88 55.39 56.45 56.53 56.46 53.98 53.95 55.54 55.44 55.94 55.9 55.95 56.11 56.07 54.9 54.8 54.78 54.91 55 54.97 54.96 54.85 54.88 54.72 55.29 56.39 56.87 56.76 56.19 55.8 55.8 55.79 55.92 55.92 55.84 56.61 55.91 55.85 55.82 55.79 55.81 55.82 56.87 56.92 55.98 55.62 55.58 55.5 55.3 55.12 55.2 55.01 54.91 54.89 54.88 55.02 55.09 55.07 55.07 55.31 55.16 55.27 55.37 55.38 55.65 55.78 55.78 55.63 55.62 55.73 55.61 55.61 55.48 55.54 55.5 55.5 55.63 56.17 56.83 56.79 56.17 56.16 56.23 56.28 56.23 56.16 56.78 56.48 56.15 56.15 56.14 56.16 56.14 56.44 56.95 56.91 55.69 55.41 55.19 55.17 55.23 55.2 55.18 55.37 55.6 55.5 55.66 55.57 55.68 55.76 55.82 55.65 55.74 55.75 55.84 55.64 55.7 55.6 55.6 55.22 55.27 55.04 54.14 54.33 54.45 54.78 55.16 55.2 55.45 55.1 55.53 55.6 55.12 54.76 54.8 53.25 52.2 52.07 52.04 52.04 52.04 52.04 52.08 52.08 52.11 52.07 52.05 52.08 52.15 52.23 52.13 52.72 53.53 54.18 54.52 54.86 55.2 55.71 56.23 56.71 59.47 61.23 62.14 62.79 63.69 64.27 64.52 64.82 65.06 65.27 65.57 65.41 65.56 65.75 65.99 65.85 65.9 66.03 66.11 66.21 66.62 66.78 67.08 67.2 67.48 67.79 68.05 68.35 68.83 69.01 69.63 70.04 69.06 68.57 68.96 69.53 70.07 70.67 71.39 71.98 72.54 73.35 73.72 74.14 71.93 65.3 65.33 66.93 69.06 72.61 76.03 78.78 79.45 77.03 78.41 76.44 76.37 76.18 76.41 76.54 76.84 77.18 77.67 78.01 78.85 79 79.02 78.79 76.92 66.25 71.98 71.89 70.71 66.34 66.34 66.35 78.27 78.93 79.19 78.99 77.96 77.45 77.02 76.65 76.48 76.17 75.99 76.67 77.76 76.33 78.55 80.07 80.11 78.99 75.17 72.14 68.73 66.11 66.03 71.15 73.73 75.4 74.76 74.2 73.69 73.12 74.19 74.61 73.77 73.76 73.33 72.84 72.64 72.1 71.69 71.42 71.29 71.26 70.47 71.2 71.32 71.42 71.66 71.97 72.52 72.98 73.48 73.92 74.28 74.57 74.71 74.78 75.01 74.97 75.13 75.15 75.25 75.25 75.27 75.22 75.24 75.2 75.2 75.17 75.13 75.13 75.16 75.19 75.13 75.14 75.14 75.21 75.2 75.22 75.24 75.22 75.25 75.05 74.82 74.6 74.3 74.11 74 73.97 73.76 73.55 73.46 73.46 73.49 73.52 73.53 73.57 73.61 73.8 73.88 -9999 -9999 -9999 -9999 -9999 -9999 -9999 -9999 -9999
-9999 -9999 -9999 61.56 61.62 61.6 61.59 61.73 62.83 62.85 62.83 62.86 62.73 63.11 64.02 63 62.84 62.69 62.11 61.78 62.2 61.5 59.02 59.69 59.18 61.09 61.19 61.15 60.78 60.57 58.16 56.13 55.6 55.56 55.5 55.41 55.47 55.34 55.32 55.44 55.31 55.17 55.35 55.26 55.24 55.28 55.01 54.89 54.91 54.89 54.92 55.19 55 54.9 54.79 55.01 55.15 55.52 54.95 54.97 54.9 54.93 55.08 55.08 55.05 55 54.95 54.98 54.97 54.88 55.01 56.83 56.77 56.17 56.04 56.02 56 55.99 56.12 56.67 56.74 55.96 55.96 55.94 55.93 55.95 56 56.56 56.41 54.9 54.22 53.99 53.98 53.96 53.99 54.19 55.56 56.09 55.72 54 54.83 55.65 55.91 55.88 55.82 56 56.05 55.7 54.86 54.92 54.93 54.89 55.01 55.04 55.07 54.98 54.91 54.41 55.43 56.67 56.9 56.71 55.88 55.83 55.8 55.78 55.76 55.99 56.8 55.87 55.89 55.88 55.86 55.84 55.81 56.09 56.8 56.83 55.65 55.64 55.54 55.38 55.2 55.12 55.11 54.83 55.18 55.03 55.08 54.99 55 55.04 55.07 55.23 55.08 55.27 55.39 55.62 55.62 55.72 55.68 55.64 55.69 55.73 55.67 55.59 55.55 55.64 55.63 55.59 55.7 56.66 56.77 56.48 56.15 56.21 56.19 56.26 56.32 56.49 56.9 56.15 56.11 56.17 56.15 56.17 56.16 56.93 57.06 56.7 55.72 55.72 55.21 55.25 55.35 55.33 55.29 55.37 55.52 55.73 55.66 55.64 55.83 55.72 55.64 55.68 55.7 55.79 55.81 55.63 55.64 55.52 55.47 55.35 55.33 54.76 54.33 54.38 54.41 54.94 55.27 55.38 55.04 55.1 55.35 55.37 54.83 54.66 53.79 52.39 52.08 52.05 52.07 52.07 52.07 52.07 52.06 52.06 52.11 52.11 52.06 52.06 52.1 52.18 52.35 52.98 53.88 54.46 54.5 55.02 55.49 56.1 57.15 57.96 59.76 61.59 62.3 62.84 63.85 64.35 64.86 65 65.13 65.51 65.5 65.44 65.71 65.81 65.9 65.99 66.08 66.09 66.12 66.3 66.38 66.53 66.99 67.48 67.52 67.6 67.75 68.02 68.52 69.03 69.61 70.13 69.25 68.58 68.85 69.35 70.09 70.62 71.26 71.91 72.43 73.03 73.74 74.28 72.49 68.26 65.51 66.56 68.43 72.28 75.38 78.55 79.69 80.2 78.63 76.41 78.16 78.69 76.71 75.28 75.38 75.95 76.59 77.12 77.53 77.9 78.26 79.38 78.3 66.12 67.34 66.21 70.67 66.32 66.33 66.3 78.65 79.08 78.18 77.7 77.2 76.64 75.72 74.9 73.73 75.22 77.78 79.78 79.01 76.21 78.46 78.61 79.77 78.4 74.44 71.41 68.22 66.1 66.06 71.26 74.11 75.3 74.75 74.15 73.66 73.09 74.4 74.47 74.06 73.55 73.18 72.78 72.37 71.91 71.55 71.26 71.11 70.94 71.04 70.72 71.25 71.31 71.5 71.86 72.35 72.84 73.44 73.88 74.24 74.53 74.73 74.89 74.94 75.01 75.17 75.13 75.28 75.3 75.25 75.27 75.27 75.24 75.12 75.15 75.14 75.11 75.11 75.15 75.12 75.17 75.13 75.15 75.15 75.15 75.18 75.1 75.18 75.16 75 74.85 74.63 74.37 74.28 74.15 73.56 73.72 73.56 73.42 73.49 73.46 73.55 73.66 73.75 73.72 73.89 -9999 -9999 -9999 -9999 -9999 -9999 -9999 -9999 -9999
-9999 -9999 -9999 61.5 61.56 61.6 61.58 61.64 62.67 62.78 62.85 62.75 62.7 63.79 63.92 62.84 62.38 62.33 61.77 62.2 61.89 59.58 58.82 59.26 60.8 61.26 61.18 60.95 60.67 58.79 56.45 55.7 55.58 55.55 55.42 55.43 55.31 55.26 55.35 55.27 55.32 55.43 55.37 55.29 55.28 55.17 55.21 54.94 54.95 54.94 54.91 54.86 54.87 54.97 54.95 54.87 55.66 54.94 54.93 54.93 54.95 54.93 55.45 54.94 54.94 54.88 55.08 55.04 55.06 54.94 55.46 56.73 56.61 56.03 56.06 56.03 56.02 55.97 56.03 56.85 55.99 55.99 55.92 55.99 55.98 56.01 56.41 56.51 56.02 54.46 54.07 53.93 53.81 53.84 53.96 53.88 53.97 54.04 53.94 54.22 55.39 55.62 55.93 55.86 55.96 56.07 55.98 54.94 54.94 54.88 54.95 54.95 55.09 55.05 55.06 55.09 54.95 54.51 55.62 57.04 56.8 55.89 55.84 55.81 55.83 55.79 55.91 56.22 56.17 55.79 55.89 55.88 55.87 55.86 55.81 56.91 56.77 55.68 55.56 55.63 55.47 55.36 55.23 55.2 54.96 55.03 54.78 54.95 55.33 55.15 55.03 55.04 55.14 55.17 55.2 55.38 55.46 55.6 55.85 55.75 55.62 55.66 55.77 55.78 55.72 55.57 55.44 55.46 55.44 55.44 55.97 56.78 56.77 56.12 56.14 56.17 56.26 56.29 56.27 57 56.21 56.14 56.14 56.13 56.12 56.13 56.87 56.99 56.66 55.6 55.87 55.77 55.33 55.27 55.27 55.24 55.27 55.38 55.64 55.64 55.58 55.77 55.79 55.74 55.71 55.76 55.83 55.83 55.75 55.73 55.67 55.59 55.37 55.22 55.22 54.53 54.37 54.42 54.73 55.35 55.79 55.21 54.75 55.45 55.64 54.95 54.94 53.61 52.44 52.11 52.04 52.06 52.09 52.09 52.1 52.1 52.1 52.09 52.09 52.09 52.12 52.06 52.07 52.06 52.88 53.41 54.18 54.53 54.88 55.23 55.91 57.06 57.41 58.8 61.05 61.64 62.42 63.17 63.97 64.43 64.81 64.96 65.35 65.45 65.49 65.49 65.74 66.09 65.95 66.22 66.06 66.11 66.24 66.33 66.44 66.54 66.72 66.83 67.27 67.69 67.79 68.03 68.42 68.97 69.49 70.11 70.06 68.62 68.63 69.22 69.89 70.57 71.26 71.75 72.31 72.99 73.68 74.27 72.77 70.01 65.29 65.41 67.61 71.48 74.71 78.13 79.55 78.25 77.6 76.17 79.13 79.77 77.74 74.35 73.28 72.57 73.9 75.35 76.38 77.16 78.07 78.97 78.76 72.42 67.03 67.31 70.58 66.34 66.84 76.28 79.13 78.39 77.51 76.41 75.58 73.93 72.28 71.37 73.77 74.59 78.58 80 78.69 76.39 80.31 80.39 79.47 77.88 73.82 70.92 67.87 66.12 66.06 71.48 74.56 75.3 74.67 74.11 73.74 73.18 74.72 74.34 73.96 73.59 73.14 72.73 72.3 71.94 71.55 71.22 70.99 70.88 71 70.08 71.1 71.19 71.41 71.77 72.32 72.78 73.37 73.82 74.13 74.46 74.72 74.8 74.92 75.05 75.15 75.15 75.22 75.2 75.25 75.26 75.27 75.28 75.2 75.19 75.17 75.17 75.15 75.21 75.1 75.09 75.09 75.18 75.15 75.17 75.15 75.1 75.14 75.13 75.08 75.01 74.85 74.68 74.52 74.35 73.78 74.01 73.63 73.52 73.55 73.54 73.56 73.6 73.69 73.83 74 -9999 -9999 -9999 -9999 -9999 -9999 -9999 -9999 -9999
-9999 -9999 -9999 61.41 61.5 61.49 61.49 61.62 62.72 62.65 62.81 62.82 62.63 62.74 62.94 62.88 61.79 61.76 62.22 62.15 61.21 61.18 60.55 60.69 61.33 61.21 61.04 60.75 59.07 56.67 55.88 55.76 55.63 55.67 55.42 55.36 55.29 55.27 55.43 55.36 55.15 55.37 55.24 55.26 55.18 55.05 54.92 54.92 55 54.86 54.87 54.93 54.95 54.85 54.85 55.08 55.61 54.91 54.9 54.97 55 55.28 55.15 54.97 54.96 54.91 54.91 55 54.89 55.1 56.82 56.55 56.01 56.01 56.07 56.03 55.96 55.98 56.7 56.14 56 55.95 55.99 56.01 55.87 56.18 56.54 56.24 54.57 54.16 54.07 53.94 53.95 53.93 53.89 53.93 53.94 53.93 54.12 55.12 55.74 55.89 55.83 55.87 56.02 56.02 54.94 55.01 55 54.95 54.93 54.98 55 55.06 55.08 55.09 54.98 54.72 56.65 56.73 56.46 55.8 55.8 55.83 55.88 55.88 55.87 56.6 55.83 55.84 55.87 55.87 55.86 55.85 56.92 56.85 55.92 55.59 55.52 55.51 55.41 55.31 55.24 55.09 54.99 54.98 55.04 55.07 54.95 54.92 55.11 55.05 55.04 55.1 55.19 55.3 55.47 55.59 55.73 55.7 55.68 55.69 55.77 55.95 55.76 55.49 55.35 55.36 55.37 55.6 56.85 56.79 56.14 56.14 56.1 56.15 56.15 56.21 56.71 56.41 56.14 56.15 56.16 56.16 56.17 56.31 56.98 56.99 55.51 55.41 55.6 55.84 55.29 55.3 55.23 55.26 55.31 55.6 55.53 55.42 55.55 55.66 55.87 55.8 55.83 55.73 55.76 55.76 55.79 55.28 55.71 55.53 55.28 55.16 55.03 54.32 54.62 54.68 54.89 55.72 55.51 54.6 55.27 55.7 55.22 54.59 53.71 52.37 52.05 52 51.99 52.03 52.1 52.09 52.09 52.09 52.1 52.11 52.11 52.12 52.12 52.13 52.11 52.75 53.1 53.98 54.35 54.79 55.29 55.78 56.47 57.53 57.86 60.46 61.04 61.76 62.42 63.49 64.06 64.3 64.57 65 65.37 65.53 65.55 65.5 65.75 65.99 65.98 66.14 66.21 66.18 66.56 66.29 66.4 66.6 66.71 66.85 67.03 67.21 67.51 68.06 68.47 68.92 69.51 70.07 70.57 68.6 68.69 69.17 69.74 70.43 71.08 71.65 72.28 72.97 73.55 74.19 73.09 70.69 65.27 65.44 67.01 70.76 73.97 77.68 79.28 80.12 80.04 76.24 78.41 79.97 78.33 74.56 73.29 71.14 71.07 71.37 72.55 71.87 77.21 78.39 79.17 78.83 78.83 79.46 79.58 79.15 78.96 79.08 79.37 78.4 76.81 71.63 71.46 71.12 71.16 71.84 73.05 74.45 79.14 80.01 77.83 76.95 80.05 80.14 79.26 77.15 73.41 70.19 67.35 66.12 66.1 72 74.94 75.21 74.6 74.11 73.56 73.28 74.71 74.3 73.93 73.55 73.07 72.7 72.29 71.97 71.53 71.25 70.94 70.78 70.91 69.52 70.96 71.21 71.36 71.65 72.17 72.72 73.2 73.58 74.06 74.43 74.63 74.79 74.91 75.03 75.13 75.22 75.31 75.29 75.31 75.33 75.25 75.3 75.24 75.25 75.22 75.21 75.18 75.15 75.14 75.13 75.1 75.06 75.17 75.13 75.11 75.07 75.16 75.15 75.05 74.95 74.83 74.87 74.72 74.66 74.56 73.12 73.74 73.64 73.6 73.54 73.59 73.59 73.64 73.8 73.91 -9999 -9999 -9999 -9999 -9999 -9999 -9999 -9999 -9999
-9999 -9999 -9999 61.4 61.46 61.45 61.45 61.48 62.5 62.49 62.74 63.24 63.98 62.97 62.34 62.44 62.11 62.23 62.24 61.32 61.32 60.91 61.14 61.31 61.26 61.19 60.78 59.31 56.97 55.46 55.21 55.82 55.78 55.51 55.37 55.37 55.47 55.27 55.4 55.28 55.28 55.29 55.17 55.26 55.08 55.02 55.11 54.98 54.92 54.9 54.88 54.95 54.97 54.87 54.9 55.56 55.11 54.94 54.95 54.9 55 55.57 55.01 54.97 54.96 54.96 54.91 54.92 54.9 56.55 56.74 56.03 56.04 56.06 56.03 56 55.97 56.3 56.73 56.03 55.99 55.98 55.99 56.03 55.99 56.47 56.52 54.88 54.29 54.39 54.97 55.54 55.58 54.85 53.92 53.89 53.9 53.98 54.63 55.74 56.04 55.9 55.92 56.04 56.03 55.71 54.93 55.02 54.94 55.04 54.98 55.02 55.02 55.08 55.11 55.11 54.81 55.87 56.91 56.71 55.8 55.82 55.8 55.84 55.86 55.93 56.62 55.9 55.86 55.91 55.92 55.86 55.89 56.62 56.82 56.23 55.53 55.52 55.55 55.49 55.44 55.19 55.33 55.19 55 54.93 55.02 54.96 54.92 54.96 54.97 55.06 55.02 55.1 55.3 55.32 55.52 55.7 55.79 55.87 55.8 55.77 55.81 55.65 55.7 55.51 55.45 55.5 55.57 56.9 56.84 56.13 56.13 56.13 56.12 56.15 56.16 56.22 56.98 56.13 56.15 56.13 56.14 56.15 56.11 56.94 57.02 56.25 55.39 55.23 55.35 55.66 55.19 55.15 55.19 55.25 55.36 55.5 55.44 55.5 55.67 55.84 55.76 55.81 55.77 56 55.87 55.8 55.7 55.6 55.53 55.42 55.25 55 54.91 54.35 54.52 54.97 55.61 55.75 54.74 55.11 55.87 55.58 54.61 53.89 52.51 52.09 52.04 52.02 52.01 52.01 52.07 52.11 52.09 52.09 52.08 52.09 52.1 52.1 52.11 52.12 52.63 52.91 53.56 54.19 54.75 55.45 55.92 56.66 57.41 57.92 58.73 60.6 61.19 61.86 62.54 63.53 64.14 64.22 64.49 64.93 65.21 65.58 65.56 65.7 65.85 65.94 65.99 66.08 66.35 66.51 66.44 66.48 66.41 66.51 66.69 66.81 66.96 67.19 67.38 68.04 68.31 68.95 69.57 69.95 70.55 68.61 68.67 69.13 69.6 70.29 70.93 71.64 72.1 72.74 73.46 74.18 73.53 71.2 65.3 65.38 67.14 70.02 73.27 77 79.21 80.16 80.03 76.76 77.64 79.9 79.24 75.22 72.44 71.58 71.05 71.32 73.67 76.2 77.63 78.15 78.2 78.36 77.93 79.08 79.74 78.96 78.44 78.25 78.43 78.1 77.7 76.6 74.17 71.32 71.2 72 71.74 75.95 79.67 79.84 76.96 77.8 78.6 79.55 79.04 76.53 73.28 69.52 68.42 66.09 66.05 72.62 75.18 75.15 74.56 74.03 73.53 73.37 74.75 74.33 73.94 73.62 73.23 72.8 72.37 72.03 71.59 71.26 70.94 70.72 70.74 69.49 70.85 71.24 71.34 71.63 72.1 72.64 73.18 73.61 74.04 74.36 74.55 74.76 74.93 74.97 75.09 75.19 75.21 75.28 75.36 75.35 75.31 75.28 75.22 75.25 75.26 75.22 75.27 75.22 75.18 75.13 75.13 75.16 75.2 75.1 75.1 75.12 75.12 75.22 75.11 75.03 74.98 74.85 74.77 74.7 74.74 74.55 73.61 73.8 73.64 73.52 73.56 73.6 73.71 73.77 73.91 -9999 -9999 -9999 -9999 -9999 -9999 -9999 -9999 -9999
-9999 -9999 -9999 61.35 61.38 61.4 61.42 62.04 62.27 62.36 62.45 62.71 62.56 62.91 62.51 62.2 62.25 62.21 61.31 61.48 61.34 61.07 61.39 61.31 61.37 60.78 59.68 57.39 56.15 55.8 55.72 55.19 55.64 55.51 55.53 55.24 55.36 55.26 55.16 55.2 55.18 55.32 55.31 55.11 55.04 54.97 55.09 55.06 55.17 54.93 54.9 54.91 54.97 54.88 54.95 55.51 54.9 54.92 54.91 54.95 55.18 55.32 54.98 54.94 54.91 54.92 54.89 54.84 55.21 56.9 56.63 56.03 56.05 56.07 56.01 55.97 56.18 56.85 55.99 55.95 55.96 55.97 55.99 55.99 56.39 56.37 55.6 54.39 54.63 55.35 55.61 55.74 55.95 55.72 54.77 53.81 53.9 54.13 55.79 55.93 55.94 55.99 56.04 56.09 56.03 54.79 54.97 54.92 55.07 54.99 54.99 54.98 55.08 55.08 55.11 55.11 55.61 56.73 56.72 55.87 55.79 55.87 55.83 55.82 55.89 55.97 56.24 55.92 55.87 55.89 55.87 55.91 55.85 56.85 56.82 55.49 55.44 55.57 55.49 55.53 55.59 55.36 55.23 55.27 55.03 54.99 54.97 54.92 54.87 54.88 55.05 55.07 55.01 55.17 55.19 55.27 55.33 55.88 55.66 55.75 55.77 55.83 55.9 55.87 55.75 55.74 55.72 55.71 56.61 56.95 56.45 56.06 56.07 56.07 56.12 56.1 56.13 57 56.13 56.15 56.06 56.1 56.18 56.12 56.83 56.94 56.99 55.87 55.49 55.26 55.04 55.04 54.94 55.12 55.27 55.34 55.47 55.41 55.5 55.62 55.85 55.6 55.68 55.78 55.95 55.92 55.92 55.69 55.66 55.48 55.36 55.18 55.11 54.94 54.73 54.39 54.85 55.23 55.66 55.15 54.84 55.62 55.66 54.61 53.74 52.86 52.15 52.06 52.06 52.05 52.04 52.04 52.03 52.1 52.11 52.08 52.08 52.08 52.08 52.09 52.1 52.08 52.73 53.21 54.09 54.48 55.26 55.97 56.64 57.23 57.9 58.52 60.04 60.67 61.39 62.16 62.88 63.75 64.1 64.13 64.24 65.03 65.53 65.58 65.57 65.8 65.96 66.08 66.16 66.13 66.35 66.55 66.71 66.54 66.51 66.65 66.59 66.67 66.9 67.14 67.39 67.97 68.44 68.89 69.45 70.03 70.73 68.9 68.82 69.01 69.58 70.13 70.81 71.48 72.09 72.68 73.32 74.01 74.06 71.81 65.29 65.42 67.05 69.33 72.79 76.15 79.07 79.88 78.14 77.67 77.08 79.69 79.59 76 71.58 71.45 71.28 71.69 75.08 77.14 77.71 77.63 80.27 81.41 82.11 81.41 81.49 79.2 77.63 77.67 77.68 77.43 77.41 77.07 74.77 71.32 71.28 71.36 71.56 76.85 79.76 79.49 76.6 78.47 80.42 80.06 78.91 75.96 72.94 68.88 67.25 66.06 66.22 73.1 75.59 75.27 74.61 74.04 73.51 73.43 74.75 74.42 74 73.69 73.26 72.74 72.38 72.04 71.71 71.37 70.91 70.55 70.49 70.15 70.64 71.16 71.37 71.64 72.06 72.59 73.08 73.49 73.93 74.3 74.55 74.76 74.92 75.01 75.12 75.22 75.22 75.23 75.38 75.32 75.35 75.38 75.28 75.26 75.25 75.25 75.3 75.27 75.28 75.23 75.21 75.16 75.17 75.13 75.12 75.08 75.15 75.2 75.19 75.08 75.07 74.94 74.83 74.72 74.62 74.64 74.54 74.29 73.81 73.69 73.66 73.58 73.65 73.75 73.87 -9999 -9999 -9999 -9999 -9999 -9999 -9999 -9999 -9999
-9999 -9999 -9999 61.6 61.45 61.38 61.39 61.75 62.09 62.51 63.44 63.16 62.95 62.61 62.33 62.22 62.22 61.24 61.46 61.4 61.41 61.38 61.36 61.39 60.83 60.08 57.67 56.26 55.71 55.6 55.79 55.7 55.26 55.27 55.62 55.47 55.4 55.18 55.35 55.32 55.27 55.19 55.24 55.29 55.23 55.23 54.99 54.91 55.07 54.94 54.89 54.96 54.98 54.87 55.23 55.13 54.97 55 54.91 54.98 55.56 54.94 55.05 54.95 54.88 54.89 54.87 54.94 56.72 56.7 56 56.03 56.04 56.04 55.98 56 56.74 56.48 55.98 55.97 55.94 55.98 55.98 56.03 56.48 56.32 54.89 54.48 54.68 55.43 55.75 55.95 55.89 55.68 55.28 53.93 53.97 55.21 56.01 55.9 55.94 55.96 56.01 56 55.29 54.69 54.9 55.03 54.97 54.99 55 55.06 55.08 55.74 56.35 56.8 56.26 56.64 56.49 55.85 55.8 55.82 55.91 55.79 55.9 56.49 55.88 55.89 55.88 55.93 55.91 55.86 56.74 56.78 56.21 55.42 55.41 55.42 55.54 55.62 55.42 55.37 55.28 55.2 55.1 55.12 55.02 54.92 54.89 55.13 54.98 55.11 55.11 55.18 55.35 55.45 55.65 55.77 55.56 55.53 55.66 55.76 55.82 55.95 55.81 55.84 56.02 56.02 57.02 56.96 56.17 56.14 56.08 56.03 56.02 56.13 56.49 56.83 56.15 56.13 56.14 56.1 56.13 56.2 57.01 56.94 55.85 55.5 55.15 55.36 55.16 55.14 55.12 55.1 55.46 55.38 55.31 55.46 55.73 55.64 55.87 55.63 55.72 55.81 55.99 55.9 55.79 55.47 55.54 55.49 55.3 55.08 55.03 55.14 54.53 54.48 55.14 55.6 55.22 54.88 55.23 55.79 54.94 53.98 53.22 52.63 52.1 52.09 52.08 52.08 52.07 52.06 52.06 52.06 52.11 52.11 52.07 52.07 52.07 52.07 52.08 52.5 53.02 53.82 54.35 54.93 55.93 56.51 57.26 57.91 58.66 59.7 60.44 61.11 61.74 62.42 63.16 63.79 64.28 64.46 63.7 64.77 65.71 65.67 65.78 65.9 66.21 66.02 66.13 66.23 66.26 66.54 66.56 66.58 66.59 66.68 66.77 66.93 66.84 67.12 67.41 68.09 68.44 68.85 69.38 69.96 70.62 69.33 68.99 69.06 69.47 70.03 70.73 71.35 71.94 72.61 73.2 73.93 74.4 72.39 65.32 65.32 67.08 68.66 72.47 75.7 78.94 79.87 80.28 78.73 76.32 78.12 79.37 76.79 71.68 71.5 71.25 71.2 73.71 75.85 75.93 76.14 78.13 80.76 81.52 81.2 81.57 79.25 77.63 77.13 75.89 75.54 75.46 75.12 72.94 71.34 71.33 71.6 73.39 77.49 78.34 76.81 76.54 79.24 80.07 80.31 79.01 75.22 72.27 68.28 66.13 66.07 68.44 73.71 75.69 75.23 74.72 74.16 73.68 73.32 74.4 74.52 74.08 73.72 73.33 72.87 72.6 72.11 71.77 71.35 70.91 70.52 70.39 70.46 70.6 71.02 71.29 71.65 72.06 72.61 73.08 73.43 73.91 74.27 74.47 74.76 74.89 75.06 75.12 75.13 75.2 75.26 75.27 75.26 75.29 75.29 75.27 75.3 75.27 75.34 75.3 75.24 75.29 75.28 75.24 75.24 75.22 75.14 75.1 75.08 75.13 75.15 75.08 75.17 75.14 74.93 74.94 74.81 74.78 74.63 74.5 74.6 74.49 73.29 73.78 73.74 73.66 73.77 73.79 -9999 -9999 -9999 -9999 -9999 -9999 -9999 -9999 -9999
