ncols         438
nrows         37
xllcenter     359780
yllcenter     507765
cellsize      5
nodata_value  -9999
-9999 -9999 79.12 79.09 79.12 79.23 79.15 79.1 79.48 80.13 81.25 82.17 82.55 82.67 82.7 82.8 82.76 82.63 82.39 82.1 81.9 81.76 82.09 84.09 85.39 85.54 85.59 85.58 85.09 83.29 80.72 78.8 77.02 75.51 74.41 74.17 75 77.32 79.58 80.48 80.46 80.1 79.56 79.05 78.42 78.25 77.66 77.24 76.76 76.31 75.76 75.12 74.59 74.07 73.67 72.97 72.39 71.91 71.14 70.78 70.07 69.63 69.21 68.76 68.51 66.72 66.74 67.9 68.16 65.64 63.28 62.93 62.8 62.62 62.38 62.1 61.63 60.17 60.1 60 60.08 60.23 60.33 60.48 58.84 57.14 57.38 57.21 57.01 55.15 53.32 51.17 50.88 50.91 50.96 50.94 50.91 50.92 50.95 50.94 50.99 51.03 50.96 50.92 50.96 51.02 51.03 52.24 55.13 56.46 57.04 57.02 57.05 57.2 57.1 57.09 57.16 56.44 52.75 51.16 50.92 50.95 50.97 50.99 51.84 54.77 54.62 54.69 54.64 54.9 55.17 55.22 55.29 55.44 55.44 55.56 57.39 58.25 58.38 58.27 58.37 58.36 58.55 58.25 58.28 58.22 58.17 58.29 58.11 58.26 58.07 58.07 58.06 58.1 58.09 58.05 58.13 58.06 58 58.04 57.9 57.87 57.88 57.89 57.97 58.11 58.13 58.04 58.12 58.3 58.16 58.02 57.9 57.95 58.02 58.07 58.12 58.19 58.26 58.43 58.56 58.49 58.32 58.33 58.3 58.32 58.3 58.32 58.4 58.41 58.33 58.28 58.21 58.19 58.17 58.09 58.25 58.12 58.19 58.28 58.36 58.22 58.13 57.07 56.1 55.3 54.69 54.82 54.8 54.61 54.59 54.89 54.59 54.44 54.64 54.59 54.47 54.41 54.38 54.31 54.31 54.25 54.19 54.24 54.26 54.19 54.33 54.21 54.05 53.02 52.79 52.57 52.41 52.38 51.91 51.56 50.72 50.74 50.74 50.8 52.37 52.61 52.78 52.87 54.43 54.47 54.41 54.17 54.02 54.08 54.08 54.1 54.23 54.04 53.96 53.88 54.06 54.13 54.28 54.26 54.18 53.97 53.94 53.85 53.75 53.89 53.96 53.39 53.33 53.45 52.63 52.52 52.52 52.83 53.13 53.16 53.92 55.69 57.73 59.35 59.66 59.61 59.78 60.08 60.02 59.98 59.99 59.88 59.84 60 59.64 59.48 59.33 57.84 57.06 56.98 56.95 57.15 57.38 57.52 57.65 57.82 57.71 57.73 57.65 57.66 57.65 57.61 57.65 57.7 57.77 57.78 57.72 57.75 57.76 57.83 57.94 57.91 57.84 57.9 57.95 58.04 58.1 58.14 58.07 57.96 57.85 57.82 57.89 57.85 58.04 57.83 57.77 57.61 58.4 58.39 58.42 58.64 58.67 58.62 58.59 58.72 58.7 58.74 60.61 60.77 60.93 61.01 61.08 61.09 61.09 61.1 61.02 61.04 61.06 61.06 61.87 62.55 62.5 62.41 62.76 62.53 62.12 62.33 62.41 62.39 62.38 62.4 62.21 62.12 62.38 61.75 61.66 62 61.47 61.49 61.59 61.25 61.41 61.25 61.04 61.11 61.04 60.97 60.98 60.96 61.04 61.24 61.23 61.07 61 61.02 61.08 61.37 61.15 61.07 61.19 61.28 61.37 61.63 61.51 61.51 61.99 62.03 62.02 62.16 61.57 61.54 62.15 62.06 62.02 62.11 62.17 62.16 62.3 62.33 62.32 62.12 62.2 62.22 62.3 62.36 62.55 62.62 62.63 62.69 62.77 -9999 -9999 -9999 -9999 -9999 -9999 -9999 -9999 -9999 -9999 -9999
-9999 78.92 78.93 79.05 78.96 78.93 79.02 78.87 78.99 79.45 80.47 81.6 82.23 82.5 82.68 82.69 82.66 82.59 82.44 82.12 82.05 83.53 85.21 85.35 85.52 85.48 85.37 83.48 81.23 79.01 77.42 75.82 75.05 74.47 74.69 76.32 78.95 80.35 79.11 79.78 79.86 79.32 78.96 77.56 77.72 77.23 76.89 76.43 75.94 75.44 74.96 74.42 73.95 73.39 72.79 72.22 71.63 71.09 70.61 69.77 69.14 68.95 68.76 68.43 66.8 66.31 66.55 67.84 66.15 63.66 62.75 62.66 62.51 62.41 62.21 61.52 60.12 60.05 59.95 60.02 60.17 60.28 60.34 58.76 57.16 57.46 57.23 56.95 55.46 53.11 51.57 50.91 50.9 50.89 50.91 50.98 50.95 50.93 50.93 50.95 50.94 50.98 51.03 50.96 50.93 51.07 52.47 53.89 56.48 56.98 57.02 56.97 57.03 57.02 57.07 57.08 57.13 54.68 52.01 50.94 50.94 50.93 50.96 50.88 52.43 54.81 54.67 54.77 54.64 54.95 55.1 55.22 55.36 55.35 55.43 56.34 57.76 58.39 58.36 58.36 58.39 58.35 58.41 58.36 58.83 58.13 58.13 58.1 58.01 58.3 58.08 58.06 58.07 58.06 58.1 58.02 58.06 58.08 58.06 57.99 57.91 57.87 57.89 57.91 57.91 57.95 57.96 58.06 58.11 58.28 58.15 58.18 58.05 58.02 58 58 58.09 58.14 58.22 58.51 58.5 58.41 58.49 58.51 58.38 58.31 58.34 58.35 58.38 58.38 58.3 58.43 58.25 58.41 58.22 58.19 58.21 58.2 58.25 58.38 58.24 58.41 58.32 58.3 58.18 56.94 55.71 54.99 54.67 54.85 54.81 54.64 54.79 54.5 54.48 54.47 54.46 54.39 54.39 54.36 54.39 54.27 54.21 54.28 54.19 54.16 54.24 54.36 54.31 53.12 52.62 52.5 52.25 52.39 52.1 51.59 51.19 50.73 50.77 50.74 52.18 52.5 52.73 52.93 54.17 54.52 54.32 54.21 54.16 54.07 54.06 54.17 54.1 54.21 53.92 54.06 54.11 54.18 54.27 53.92 54.03 53.92 53.87 53.83 53.78 53.72 53.54 53.5 53 52.74 52.94 52.32 52.97 52.85 53.48 53.42 54.75 56.67 58.83 59.63 59.77 59.84 60.1 60.17 60.08 60.05 59.97 59.99 60.05 59.98 59.92 59.71 59.3 58.6 57.27 57.05 57.15 57.27 57.39 57.35 57.53 57.64 57.71 57.71 57.65 57.67 57.6 57.54 57.69 57.79 57.81 57.88 57.85 57.96 58.07 58.08 58.08 57.99 57.91 57.99 58.03 58.12 58.15 58.09 57.98 57.97 57.85 57.9 57.91 57.9 57.75 57.8 57.78 57.81 58.19 58.46 58.78 58.61 58.58 58.58 58.75 58.77 58.81 59.31 60.64 60.81 61.02 61.06 61.11 61.08 61.1 61.13 61.06 61.14 61.18 61.2 61.53 62.54 62.67 62.47 62.59 62.48 62.44 62.31 62.29 62.46 62.38 62.46 62.21 62.25 61.81 61.59 61.68 62.08 61.78 61.81 61.81 61.74 61.41 61.24 61.18 61.3 61.32 61.17 60.97 61.02 61.18 61.26 61.16 61.14 61.1 61.07 61.54 61.75 61.58 61.46 61.32 61.41 61.57 61.73 61.69 61.62 61.82 61.95 61.98 62.06 62.24 61.86 62.22 62.11 62.16 62.3 62.36 62.1 62.3 62.2 62.1 62.2 62.21 62.41 62.35 62.58 62.57 62.65 62.68 62.77 62.89 -9999 -9999 -9999 -9999 -9999 -9999 -9999 -9999 -9999 -9999 -9999
-9999 78.82 78.77 78.73 78.86 78.85 78.79 78.83 78.67 78.95 79.54 80.48 81.59 82.29 82.54 82.57 82.58 82.55 82.46 82.8 84.65 85.11 85.23 85.4 85.2 83.86 82.16 79.65 77.85 76.28 75.27 74.81 74.93 76.13 78.43 80.19 80.6 80.48 79.27 79.46 79.1 78.54 78.08 77.56 77.13 76.17 76.08 75.72 75.09 74.61 74.02 73.48 72.4 72.23 72.08 71.38 70.74 70.57 69.65 69.2 68.82 68.72 68.41 66.16 65.92 66.09 67.33 66.33 63.87 62.55 62.45 62.37 62.29 62.21 61.38 60.08 60.04 59.9 59.96 60.12 60.21 60.25 58.43 57.06 57.44 57.31 56.83 55.85 53.57 51.59 50.93 50.92 50.91 50.9 50.9 50.91 51 50.97 50.95 50.94 50.95 50.94 50.97 51.02 50.96 52.41 55.06 56.09 57.17 56.93 56.91 56.96 56.87 57.05 56.99 57.08 57.17 53.98 51.4 50.93 50.92 50.92 50.92 50.83 52.83 54.8 54.72 54.71 54.6 54.82 55.04 55.15 55.28 55.31 55.71 57.49 58.32 58.35 58.34 58.34 58.36 58.33 58.32 58.31 58.29 58.49 58.14 58.09 58.04 58 58.04 58.1 58.09 58.18 58.06 58.03 58.02 58.02 58.06 57.96 57.93 57.95 57.93 57.9 57.9 57.96 58.06 58.05 58.31 58.07 58.14 58.14 58.06 58.06 58.01 58.05 58.09 58.11 58.09 58.24 58.31 58.32 58.43 58.38 58.53 58.35 58.33 58.35 58.38 58.35 58.35 58.49 58.3 58.41 58.26 58.26 58.5 58.24 58.33 58.33 58.32 58.32 58.28 58.41 58.37 58.43 57.87 56.63 55.51 54.84 54.81 54.76 54.67 54.65 54.46 54.48 54.4 54.34 54.35 54.39 54.39 54.32 54.35 54.26 54.35 54.28 54.3 54.46 54.35 53.29 52.87 52.74 52.5 52.4 52.43 51.49 51.52 50.72 50.69 50.69 52.12 52.55 52.7 52.95 53.89 54.52 54.27 54.29 54.13 54.14 54.18 54.21 54.14 54.16 54.15 54.17 54.19 54.16 54.15 54.14 53.92 53.96 53.84 53.89 53.8 53.82 53.84 53.45 52.78 52.92 53.03 52.3 52.81 53.07 53.09 53.68 55.49 57.2 59.41 59.71 59.72 59.97 60.01 60.12 60.08 60.21 60.22 60.24 60.17 60.18 60 60.12 59.78 58.37 57.31 57.08 57.14 57.08 57.45 57.35 57.52 57.59 57.61 57.79 57.7 57.56 57.58 57.66 57.92 57.87 57.87 57.87 57.95 58.02 58.19 58.21 58.16 58.04 58.04 58.11 58.12 58.23 58.13 58.07 57.97 57.89 57.8 57.8 57.88 57.9 58.07 58.17 58.14 57.84 58.02 58.31 58.6 58.85 58.71 58.77 58.94 59.02 58.93 60.61 60.7 60.87 60.98 61.07 61.18 61.18 61.25 61.25 61.18 61.24 61.31 61.38 61.58 62.38 62.12 62.12 62.13 62.37 62.51 62.34 62.53 62.67 62.33 62.36 62.19 62.32 61.74 61.72 61.75 62.16 61.77 61.74 61.81 61.79 61.48 61.38 61.25 61.34 61.23 61.22 61.1 61.11 61.27 61.44 61.31 61.26 61.26 61.6 61.77 61.76 61.81 61.65 61.6 61.58 61.73 61.78 61.7 61.69 61.78 61.84 61.92 62.07 62.43 62.11 62.06 62.13 62.27 62.28 62.32 62.16 62.01 62.09 62.19 62.14 62.32 62.37 62.63 62.54 62.59 62.65 62.76 62.82 62.94 -9999 -9999 -9999 -9999 -9999 -9999 -9999 -9999 -9999 -9999 -9999
-9999 78.75 78.7 78.65 78.63 78.75 78.68 78.68 78.62 78.5 78.75 79.45 80.56 81.82 82.33 82.48 82.54 82.49 83.85 84.36 84.83 85.15 85.09 83.63 81.87 79.94 78.19 76.38 75.36 74.69 74.72 75.27 77.64 79.72 80.54 80.57 80.19 79.79 79.26 78.83 78.31 77.78 77.33 75.97 76.6 75.9 75.15 74.93 74.33 73.77 73.32 72.55 72.28 71.79 71.23 70.55 70 69.58 68.85 68.93 68.78 67.38 66.02 65.47 65.65 66.84 66.36 64.07 62.32 62.19 62.11 62.18 62.14 61.29 60.01 60.07 59.91 59.92 60.09 60.14 60.22 58.38 57.02 57.47 57.16 56.9 55.68 53.78 52.02 51.02 50.96 50.92 50.93 50.92 50.91 50.9 50.92 51.01 50.99 50.97 50.95 50.94 50.93 50.97 52.14 54.54 56.58 57.17 57.02 56.99 57.03 57.05 57.14 57.26 57.04 57 56.48 53.57 50.99 50.94 50.93 50.93 50.91 50.89 53.2 54.65 54.74 54.62 54.56 54.76 54.92 54.98 55.15 55.32 56.53 58.39 58.34 58.33 58.34 58.38 58.33 58.34 58.33 58.29 58.22 58.27 58.23 58.06 58.13 58.05 58.06 58.01 58.06 58.05 58.02 58.01 58.03 58.05 58.02 57.95 58 57.95 57.93 57.95 57.93 57.95 57.98 57.99 58.14 58.04 58.2 58.1 58.09 58.06 58.04 58.07 58.08 58.05 58.37 58.1 58.15 58.29 58.36 58.4 58.56 58.56 58.44 58.33 58.33 58.41 58.31 58.27 58.14 58.13 58.18 58.21 58.18 58.29 58.5 58.33 58.27 58.33 58.51 58.42 58.47 58.61 58.46 58.53 57.61 56.12 55.28 54.97 54.8 54.73 54.69 54.57 54.41 54.47 54.39 54.38 54.45 54.36 54.35 54.33 54.45 54.36 54.36 54.39 54.22 53.95 53 52.81 52.54 52.44 52.6 51.78 51.2 50.75 50.75 50.79 51.85 52.58 52.77 52.81 53.37 54.32 54.24 54.36 54.12 54.13 54.16 54.22 54.34 54.25 54.15 54.13 54.21 54.23 54.12 54.06 53.86 53.85 53.79 53.88 53.86 53.81 53.63 52.86 52.91 53.02 52.82 52.33 53.28 53.25 53.21 54.41 56.31 58.39 59.66 59.74 59.8 60.14 60.14 60.2 60.17 60.22 60.39 60.38 60.48 60.39 60.14 59.86 58.2 57.67 57.38 56.97 56.79 57.03 57.37 57.4 57.54 57.52 57.7 57.63 57.49 57.52 57.62 57.83 57.96 57.9 57.92 57.95 58.08 58.17 58.17 58.28 58.13 58.02 58.08 58.21 58.26 58.18 58.09 57.97 57.93 57.97 57.84 57.77 57.88 58.03 58.1 58.36 58.5 58.32 58.24 58.34 59.06 59.28 58.8 58.97 59.25 59.35 59.66 60.59 60.71 60.86 60.97 61.1 61.2 61.26 61.3 61.27 61.3 61.37 61.43 61.54 61.63 62.23 62.14 62.16 62.19 62.28 62.33 62.24 62.44 62.47 62.38 62.37 62.34 62.23 62.04 62.13 61.87 62.19 61.66 61.75 61.95 61.89 61.72 61.75 61.49 61.61 61.5 61.27 61.31 61.23 61.41 61.69 61.43 61.4 61.56 61.8 61.89 61.82 61.76 61.76 61.92 61.68 61.84 61.8 61.74 61.88 61.83 62.01 62.07 62.13 62.1 62.11 62.15 62.18 62.21 62.24 62.19 62.02 62.16 62.22 62.03 62.4 62.38 62.67 62.57 62.6 62.66 62.74 62.79 62.97 62.95 -9999 -9999 -9999 -9999 -9999 -9999 -9999 -9999 -9999 -9999 -9999
-9999 78.57 78.57 78.58 78.62 78.55 78.59 78.46 78.4 78.42 78.34 78.62 79.44 80.83 81.99 82.4 82.65 83.35 84.48 84.81 84.88 83.92 82.06 80.09 78.23 77.65 76.36 75.08 74.81 75.33 77.45 79.09 80.54 80.41 80.21 79.83 79 78.99 78.4 77.91 77.39 76.96 76.54 76.03 75.6 74.98 74.36 73.9 73.58 72.96 72.38 71.85 71.44 70.98 70.27 69.81 69.44 69.12 68.89 68.27 66.82 65.17 64.94 65.13 66.42 66.24 64.21 62.38 62.05 61.88 61.94 62.04 61.42 60.02 59.95 59.83 59.88 60.03 60.07 60.13 58.15 57.05 57.44 57.14 56.72 55.68 54.01 52.18 50.98 51.03 51.02 50.97 50.91 50.94 50.93 50.92 50.91 50.92 51.03 51.01 50.98 50.96 50.94 51.66 54.09 56.15 56.95 56.93 56.92 56.99 56.89 57.11 58.22 57.12 57.02 57.04 55.61 53.31 50.99 50.98 50.96 50.94 50.91 50.88 53.45 54.67 54.73 54.62 54.6 54.64 54.77 54.93 55.3 55.82 57.59 58.41 58.34 58.55 58.26 58.38 58.31 58.3 58.31 58.28 58.41 58.36 58.24 58.19 58.2 58.02 58.06 58.03 58 58 58.04 58.02 58.05 57.99 57.91 57.96 58.04 57.98 57.98 57.9 57.93 57.94 57.97 57.99 57.99 58.03 58.33 58.29 58.08 58.05 58.07 58.09 58.07 58.21 58.57 58.31 58.09 58.12 58.13 58.22 58.33 58.36 58.49 58.47 58.35 58.37 58.74 58.24 58.12 58.17 58.82 58.19 58.21 58.15 58.28 58.13 58.21 58.33 58.41 58.5 58.55 58.57 58.61 58.57 58.64 58.01 56.7 55.43 54.92 54.77 54.74 54.64 54.65 54.42 54.47 54.43 54.48 54.39 54.38 54.44 54.35 54.69 54.46 54.41 54.33 54.4 53.16 52.82 52.6 52.42 52.42 51.95 51.57 50.78 50.78 50.78 51.49 52.36 52.65 52.8 53.39 54.45 54.37 54.22 54.14 54.12 54.21 54.32 54.35 54.36 54.31 54.22 54.12 54.11 54.09 54 53.8 53.82 53.74 53.96 53.85 53.83 53.74 53.29 52.91 53.41 52.51 52.81 52.99 53.29 53.6 55.32 57.26 59.42 59.75 59.76 60.05 60.31 60.19 60.08 60.14 60.31 60.35 60.47 60.45 60.18 59.41 58.81 58.3 57.86 57.55 57.08 56.47 56.55 57.43 57.31 57.45 57.51 57.64 57.46 57.47 57.45 57.66 57.93 57.87 57.92 57.99 58.04 58.14 58.13 58.24 58.23 58.01 58.08 58.17 58.29 58.21 58.13 58.03 57.93 57.86 57.82 57.88 57.84 57.84 58.05 58.24 58.24 58.53 58.88 58.66 58.67 58.93 58.84 58.81 59.19 59.47 59.6 60.39 60.61 60.72 60.88 60.9 61.13 61.29 61.37 61.42 61.44 61.47 61.54 61.62 61.81 61.82 62.04 62.18 62.2 62.09 62.19 62.19 62.19 62.69 62.49 62.45 62.39 62.4 62.25 62.26 62.46 62.56 62.29 61.76 61.86 62.03 62.02 62 61.95 61.69 61.85 61.81 61.55 61.5 61.5 61.59 61.83 61.72 61.54 61.7 62.01 61.99 61.95 61.89 61.84 61.73 61.66 61.99 61.98 61.81 61.97 62.13 62.12 62.05 62.14 62.13 62.13 62.13 62.16 62.11 61.96 62.07 62.14 62.19 62.19 62.31 62.42 62.76 62.51 62.59 62.62 62.71 62.83 62.86 62.93 62.96 -9999 -9999 -9999 -9999 -9999 -9999 -9999 -9999 -9999 -9999 -9999
-9999 78.39 78.41 78.44 78.5 78.49 78.52 78.54 78.37 78.25 78.16 78.13 78.27 79.42 81.1 82.43 84.05 84.62 84.71 84.33 82.31 80.47 78.74 77.55 76.79 75.69 75.1 75.55 76.69 78.55 80.35 80.58 80.35 79.86 79.43 79.02 78.61 77.82 77.49 77.07 76.62 76.11 75.67 75.1 74.62 74.24 73.65 72.72 72.64 72.29 71.82 71.22 70.78 70.06 69.52 69.26 69.12 68.99 67.88 65.84 64.62 64.52 64.79 66.09 65.82 64.13 62.27 62 61.88 61.84 61.82 61.29 59.88 59.86 59.79 59.84 59.97 60.03 60.14 58.06 57.03 57.43 57.15 56.8 55.9 54.2 52.5 51.09 50.9 50.94 50.99 51.03 50.97 50.91 50.95 50.93 50.93 50.92 50.95 51.05 51.02 51 51.49 53.58 55.97 57.08 56.91 56.89 57.02 57 56.86 57.04 57.74 57.2 56.86 56.9 54.77 53.05 50.9 50.92 50.92 50.92 50.87 51.5 53.76 54.71 54.62 54.67 54.64 54.6 54.72 54.87 55.41 57.08 58.51 58.36 58.34 58.31 58.47 58.29 58.32 58.27 58.34 58.26 58.25 58.2 58.24 58.22 58.2 58.2 58.23 58.11 58.09 58.06 58.04 58.06 58.04 57.91 57.94 57.97 57.98 58.03 58 57.95 57.95 57.99 57.91 57.98 57.99 58.02 58.04 58.06 58.15 58.14 58.05 58.11 58.12 58.33 58.55 58.2 58.17 58.15 58.12 58.08 58.26 58.39 58.51 58.46 58.34 58.32 58.83 58.29 58.18 58.07 58.01 58.26 58.18 58.15 58.14 58.11 58.26 58.13 58.35 58.39 58.58 58.58 58.58 58.65 58.76 58.67 58.64 57.15 55.45 54.66 54.73 54.81 54.63 54.53 54.54 54.66 54.6 54.4 54.42 54.46 54.44 54.53 54.48 54.44 54.47 54.25 53.27 52.86 52.64 52.45 52.36 52.42 51.57 50.77 50.77 50.72 51.33 52.51 52.72 52.84 53.2 54.41 54.54 54.36 54.19 54.18 54.3 54.35 54.39 54.36 54.29 54.11 54.22 54.11 53.95 53.95 53.88 53.72 53.82 53.92 53.89 53.91 53.86 52.92 52.89 52.57 53.05 52.63 53.37 53.3 54.34 56.15 58.33 59.74 59.81 59.94 60.15 60.15 60.22 60.18 60.16 60.38 60.56 60.59 60.41 60.42 59.09 58.76 58.72 58.91 58.47 57.18 56.36 56.51 57.19 57.32 57.66 57.56 57.39 57.36 57.37 57.46 57.81 57.92 57.97 57.96 58 58.13 58.14 58.23 58.19 57.97 58.02 58.1 58.27 58.23 58.16 58.05 57.96 57.92 57.84 57.71 57.79 58.02 58 58.05 58.25 58.46 58.6 58.71 58.82 59.29 59.22 58.93 59.04 59.44 59.66 60.08 60.45 60.64 60.77 60.87 61.14 61.26 61.38 61.48 61.55 61.65 61.74 61.81 61.83 61.98 62 62.16 62.44 62.23 61.36 62.26 62.23 62.6 62.69 62.44 62.45 62.42 62.42 62.34 62.27 62.6 62.62 62.28 61.99 62.19 62.34 62.27 62.37 62.18 61.87 61.89 61.85 62.03 62.07 61.78 61.8 61.91 62.03 61.75 61.85 62.05 62.07 61.98 61.96 62.08 61.98 62.11 62.18 62.14 61.89 61.89 62.07 62.1 62.1 62.09 62.13 62.11 61.99 61.92 62.02 62.13 62.2 62.16 62.24 62.32 62.47 62.65 62.55 62.58 62.62 62.7 62.74 62.85 62.83 62.89 62.94 -9999 -9999 -9999 -9999 -9999 -9999 -9999 -9999 -9999 -9999 -9999
-9999 78.22 78.24 78.25 78.34 78.37 78.38 78.45 78.38 78.32 77.98 77.82 77.7 78.17 79.72 81.57 83.17 84.31 82.53 80.88 79.21 77.81 77.09 75.88 75.25 75.38 76.36 78.33 79.88 80.45 80.34 79.92 79.48 79.09 77.56 78.07 77.68 77.04 76.68 76.24 75.84 75.35 74.92 74.43 74 73.52 73.07 72.69 71.4 71.53 71.04 70.57 69.87 69.49 69.16 68.99 68.72 66.89 65.28 64.22 64.26 64.95 65.79 65.28 63.61 62.09 61.96 61.78 61.75 61.77 61.22 59.81 59.78 59.76 59.74 59.92 59.95 59.99 58.02 57.18 57.44 57.1 56.99 55.86 54.37 52.91 50.94 50.99 50.85 50.86 50.9 50.94 50.98 50.98 50.9 50.96 50.92 50.93 50.92 51.09 51.06 51.78 53.61 55.69 56.92 56.85 56.88 56.78 57.14 57.48 57.21 57.5 56.69 56.84 56.93 56.93 54.57 52.55 50.85 50.86 50.86 50.86 50.86 51.36 54.55 54.59 54.56 54.52 54.53 54.5 54.57 54.99 55.93 57.75 58.39 58.37 58.32 58.29 58.28 58.26 58.27 58.26 58.28 58.31 58.24 58.23 58.21 58.29 58.22 58.2 58.17 58.13 58.13 58.08 58.05 58.05 57.97 57.89 57.97 57.99 57.98 58.01 58.03 58.04 58.14 57.99 57.95 58.01 57.92 57.98 58.05 58.02 58.03 58.15 58.06 58.07 58.51 58.4 58.67 58.43 58.28 58.18 58.15 58.07 58.05 58.14 58.3 58.36 58.34 58.49 58.36 58.9 58.24 58.13 58.12 58.21 58.15 58.13 58.18 58.08 58.19 58.16 58.23 58.32 58.49 58.57 58.65 58.69 58.8 58.74 58.74 58.6 57.66 55.46 54.67 54.55 54.49 54.52 54.55 54.86 54.87 54.48 54.39 54.45 54.4 54.39 54.47 54.4 54.46 54.35 53.8 52.95 52.74 52.49 52.35 52.45 51.53 50.79 50.71 50.72 50.79 52.49 52.68 52.98 53.02 54.27 54.55 54.42 54.22 54.38 54.52 54.44 54.72 54.44 54.21 54.15 54.11 54.04 54.01 53.91 53.95 53.85 53.79 53.87 53.97 53.51 53.89 52.97 53.1 52.44 53.07 53.25 53.29 53.58 55.2 57.13 59.43 59.78 59.91 60.06 60.19 60.25 60.14 60.13 60.16 60.47 60.38 60.34 60.53 60.39 58.73 57.98 57.65 59.31 59.24 58.15 57 56.5 57.11 57.35 57.48 57.36 57.22 57.29 57.38 57.81 57.93 58.05 58.05 57.99 58.04 58.1 58.24 58.22 57.95 57.98 58.02 58.14 58.18 58.16 58.12 58.03 57.9 57.98 58 57.92 57.92 57.89 58.07 58.25 58.25 58.38 58.65 58.86 59 59.1 59.03 59.11 59.41 59.55 59.82 60.32 60.49 60.7 60.8 60.97 61.23 61.47 61.61 61.69 61.75 61.9 61.99 62.06 62.05 62.18 62.18 62.3 62.48 62.32 61.67 62.11 62.47 62.69 62.64 62.5 62.45 62.52 62.42 62.3 62.32 62.56 62.45 62.31 62.55 62.55 62.51 62.46 62.33 62.39 62.12 61.99 62.08 62.26 62.26 62.1 62.06 62.03 62.19 62.1 62.13 62.23 62.1 62.2 62.24 62.25 62.09 62.17 62.17 62.21 62.17 61.93 62.06 62.04 62.05 61.91 61.83 61.93 62 62.1 62.11 62.21 62.17 62.24 62.36 62.46 62.64 62.68 62.57 62.63 62.67 62.74 62.78 62.8 62.78 62.84 62.89 -9999 -9999 -9999 -9999 -9999 -9999 -9999 -9999 -9999 -9999 -9999
-9999 78.2 78.11 78.13 78.14 78.19 78.3 78.3 78.38 78.22 78.14 77.58 77.43 77.43 78.49 80 81.42 81.3 79.38 78.09 77.15 76.07 75.62 75.57 76.11 77.7 79.68 80.38 80.46 80.02 79.67 79.23 78.69 78.27 77.77 77.21 76.84 76.43 75.96 75.54 75.04 74.58 73.94 73.63 73.22 72.78 72.4 71.88 71.23 70.47 70.36 69.64 69.28 68.88 68.85 68.35 66.26 64.71 63.95 63.95 65.1 65.56 64.73 63.17 61.9 61.84 61.71 61.71 61.69 61.2 59.75 59.67 59.74 59.73 59.87 59.85 59.83 57.92 57.3 57.45 57.18 56.75 56.18 54.42 52.8 51.47 51.04 51.01 50.97 50.9 50.86 50.87 50.89 50.94 50.98 50.89 50.97 50.92 50.93 50.94 52.28 53.11 55.47 56.82 56.7 56.81 57.02 56.65 57.09 58.46 57 56.89 56.74 56.78 56.98 56.79 55.35 52 50.93 50.88 50.88 50.88 50.87 52.35 54.87 54.5 54.48 54.37 54.39 54.69 54.63 55.17 57.15 58.16 58.46 58.36 58.32 58.34 58.25 58.22 58.22 58.22 58.27 58.21 58.24 58.22 58.21 58.21 58.21 58.19 58.16 58.14 58.27 58.12 58.05 58 57.93 57.95 58 58.03 58.08 58.04 58 57.99 58.04 58.03 58 57.98 57.97 58.17 58.05 58.16 58.01 58.11 58.05 58.04 58.06 58.56 58.52 58.31 58.31 58.35 58.16 58.08 58.08 58.12 58.1 58.13 58.24 58.79 58.26 58.36 58.22 58.19 58.22 58.2 58.14 58.13 58.16 58.12 58.18 58.15 58.2 58.21 58.32 58.45 58.55 58.81 58.78 58.89 58.8 58.76 58.8 57.92 56.47 55.2 55.73 55.29 54.52 54.6 55.47 54.77 54.54 54.53 54.45 54.38 54.44 54.27 54.4 54.36 54.22 52.85 52.59 52.43 52.39 52.64 51.5 50.73 50.77 50.81 50.83 52.32 52.76 53.04 53.14 54.32 54.58 54.48 54.3 54.39 54.52 54.41 54.42 54.35 54.22 54.15 54.07 54.13 53.88 54.01 54.13 53.93 53.96 53.73 53.95 53.49 53.01 53.03 52.99 52.48 53.16 53.18 53.32 54.15 56.15 58.34 59.74 59.84 59.94 60.09 60.27 60.15 60.17 60.34 60.44 60.15 60.37 60.57 60.25 59.05 55.51 56.33 56.81 57.57 58.9 58.73 58.72 56.48 57.13 57.33 57.37 57.22 57.19 57.29 57.83 58.1 58.06 58.16 58.08 58.04 58.08 58.18 58.22 57.96 57.87 57.98 58.08 58.29 58.13 58.02 58.01 57.92 58.03 58.09 58.21 58.52 58.29 58.11 58.09 58.23 58.46 58.54 58.63 58.79 59.02 59.05 59.21 59.44 59.72 59.82 60.18 60.42 60.58 60.76 60.92 61.19 61.39 61.59 61.78 61.9 62.04 62.21 62.32 62.39 62.29 62.4 62.41 62.45 62.37 62.47 62.63 63.18 62.81 62.79 62.55 62.52 62.56 62.61 62.51 62.59 62.63 62.45 62.62 62.47 62.49 62.5 62.47 62.63 62.59 62.46 62.44 62.36 62.42 62.4 62.36 62.35 62.33 62.31 62.3 62.26 62.25 62.23 62.28 62.26 62.21 62.23 62.23 62.2 62.17 62.07 61.98 61.99 61.96 61.94 61.94 61.95 61.97 62.03 62.12 62.18 62.47 62.18 62.35 62.36 62.53 62.62 62.67 62.73 62.64 62.69 62.72 62.8 62.78 62.75 62.74 62.77 62.82 -9999 -9999 -9999 -9999 -9999 -9999 -9999 -9999 -9999 -9999 -9999
-9999 78.12 78.11 78.03 78 78.06 78.15 78.26 78.24 78.18 78.11 77.61 77.18 76.99 77.28 78.39 78.8 78.26 77.13 76.2 75.81 75.73 76.17 77.9 79.57 80.45 80.45 80.14 79.72 79.33 78.91 78.4 77.86 77.35 76.93 76.41 75.97 75.57 75.2 74.71 74.29 73.84 73.28 72.99 72.42 71.95 71.61 71.05 70.64 69.94 69.29 68.89 68.69 68.45 67.25 66.21 64.56 63.72 63.79 65.06 65.3 64.4 62.73 61.79 61.78 61.73 61.65 61.69 61.01 59.7 59.53 59.67 59.7 59.81 59.8 59.62 57.94 57.39 57.48 57.23 57.02 55.7 54.76 53.29 51.64 50.87 51.01 51.03 50.99 50.96 50.94 50.87 50.88 50.89 50.9 50.93 50.89 50.99 50.92 51.88 53.04 55.23 56.91 56.72 56.77 57.05 57.09 57.01 57.14 57.09 56.94 56.99 56.9 56.85 56.98 56.47 54.76 51.53 50.92 50.9 50.89 50.89 50.86 52.8 54.68 54.49 54.49 54.41 54.4 54.5 54.88 56.3 58.09 58.67 58.39 58.31 58.32 58.34 58.28 58.21 58.19 58.2 58.2 58.19 58.18 58.19 58.17 58.18 58.19 58.19 58.16 58.12 58.11 58.04 58.01 57.99 57.95 58 58.02 58.04 58.08 58.06 58.03 58.02 57.99 58.11 58.01 57.99 58 57.97 58 58.22 58.03 58.02 58.05 58.13 58.16 58.13 58.35 58.31 58.34 58.27 58.16 58.1 58.09 58.11 58.08 58.07 58.37 58.33 58.31 58.27 58.38 58.25 58.31 58.25 58.17 58.12 58.19 58.23 58.15 58.15 58.16 58.33 58.36 58.54 58.63 58.96 58.78 58.75 58.89 58.95 58.77 58.72 58.45 57.71 57.38 56.47 54.7 54.68 55.47 55.05 54.79 54.51 54.32 54.5 54.39 54.33 54.44 54.25 54.31 53.04 52.83 52.62 52.41 52.65 51.59 50.77 50.76 50.75 50.77 52.36 52.66 52.71 53.07 54.02 54.52 54.56 54.39 54.51 54.61 54.53 54.48 54.23 54.11 54.27 54.08 54.06 53.88 53.96 53.93 53.99 54.15 54.64 53.23 52.85 52.98 53.13 52.86 52.63 52.98 53.1 53.5 55.09 56.97 59.3 59.84 59.91 60.19 60.53 60.08 60.23 60.2 60.38 60.21 60.17 60.62 60.28 60.12 59.59 55.5 54.28 56.1 56.71 56.97 58.76 58.7 56.65 57 57.16 57.02 57.09 57.06 57.44 58.07 58.19 58.32 58.16 58.15 58.27 58.08 58.2 58.14 57.87 57.96 58.04 58.25 58.08 58 57.93 57.87 57.97 58 58.11 58.63 58.76 58.81 58.6 58.31 58.28 58.45 58.78 58.79 58.9 58.99 59.2 59.39 59.67 59.84 60.09 60.29 60.51 60.64 60.87 61.07 61.29 61.56 61.75 61.93 62.02 62.15 62.34 62.48 62.65 62.71 62.71 62.57 62.67 62.7 62.69 63.17 62.84 62.82 62.76 62.62 62.61 62.65 62.74 62.77 62.66 62.6 62.61 62.55 62.52 62.56 62.54 62.54 62.53 62.42 62.41 62.48 62.34 62.36 62.36 62.33 62.3 62.31 62.3 62.26 62.26 62.25 62.22 62.23 62.21 62.18 62.16 62.15 62.12 62.09 62.09 62.04 62.08 62.02 62.01 62.01 62.02 62.04 62.08 62.22 62.37 62.27 62.42 62.41 62.36 62.41 62.49 62.7 62.84 62.85 62.76 62.76 62.82 62.82 62.75 62.73 62.78 -9999 -9999 -9999 -9999 -9999 -9999 -9999 -9999 -9999 -9999 -9999 -9999
-9999 78.02 77.96 77.97 77.94 77.98 78.01 78.09 78.12 78.16 78.06 77.71 76.97 76.79 76.51 76.9 76.69 76.26 75.88 75.64 75.72 76.65 77.72 78.7 80.49 80.21 79.85 79.2 79.04 78.66 78.18 77.73 77.06 76.74 76.11 75.65 75 74.87 74.34 74.04 73.49 73.24 72.23 72.16 71.73 71.11 70.68 70.34 70.03 69.67 68.7 68.49 68.16 66.82 65.44 64.51 63.76 63.79 64.95 65.06 64.01 62.44 61.76 61.72 61.6 61.63 61.68 60.98 59.63 59.54 59.63 59.6 59.74 59.76 59.52 57.79 57.47 57.49 57.59 57.18 56.09 54.7 53.33 52 50.89 50.88 50.87 50.98 51.01 50.98 50.94 50.93 50.88 50.89 50.9 50.91 50.91 50.93 52.03 53.47 55.53 56.77 56.94 56.93 57.05 57.1 57.07 57.09 57.07 57.12 57.17 57.06 56.92 56.98 56.91 56.25 53.68 51.08 51.01 51.04 50.97 50.97 50.9 53.05 54.55 54.42 54.33 54.26 54.23 54.64 55.12 57.27 58.36 58.35 58.31 58.29 58.28 58.25 58.24 58.23 58.21 58.19 58.2 58.19 58.19 58.18 58.18 58.19 58.21 58.13 58.15 58.13 58.08 58.03 57.94 58.01 58.03 58.06 58.05 58.1 58.13 58.11 58.13 58.07 58.07 58.02 58.02 58.01 58.01 58 57.99 58 57.99 58 58.04 58.11 58.06 58.14 58.18 58.17 58.21 58.2 58.16 58.18 58.17 58.13 58.11 58.11 58.78 58.43 58.31 58.31 58.3 58.23 58.17 58.15 58.14 58.14 58.04 58.15 58.14 58.21 58.36 58.32 58.3 58.39 58.57 58.97 58.7 58.72 58.84 59.01 58.88 58.72 58.58 58.29 57.93 56.87 55.62 55.19 54.77 54.62 54.75 54.52 54.39 54.44 54.36 54.42 54.34 54.23 54.31 53.03 52.79 52.57 52.36 52.54 51.63 50.9 50.79 50.82 50.81 52.3 52.67 52.88 53.26 53.71 54.6 54.7 54.38 54.4 54.62 54.59 54.52 54.34 54.36 54.31 54.33 54.09 53.97 54.17 53.93 54.15 54.54 53.35 52.76 53.06 53.03 53.13 52.59 52.6 52.89 53.64 54.15 56.1 58.14 59.76 59.85 59.9 60.21 60.27 60.28 60.17 60.13 60.25 60.37 60.43 59.94 60.41 60.32 59.66 56.63 56.22 54.82 55.35 56.74 56.9 56.93 56.66 56.82 56.91 56.95 56.99 57.2 58.02 58.23 58.29 58.36 58.32 58.12 58.09 58.1 58.12 57.88 57.91 57.99 58.14 58.06 58.01 57.9 57.82 57.89 57.96 57.99 58.7 58.75 58.8 58.77 58.64 58.79 58.51 58.47 58.63 58.85 59.02 59.18 59.37 59.54 59.67 59.8 60.01 60.28 60.42 60.66 60.82 61.01 61.22 61.39 61.63 61.8 62.01 62.08 62.32 62.43 62.53 62.63 62.72 62.72 62.76 62.79 62.79 62.81 62.82 62.79 62.78 62.76 62.74 62.72 62.7 62.68 62.66 62.62 62.63 62.59 62.56 62.56 62.55 62.53 62.49 62.43 62.45 62.43 62.4 62.36 62.36 62.31 62.3 62.27 62.24 62.23 62.23 62.22 62.19 62.4 62.31 62.25 62.21 62.28 62.34 62.18 62.16 62.13 62.11 61.94 61.97 62 62.03 62.1 62.1 62.19 62.34 62.34 62.41 62.34 62.29 62.1 62.07 62.07 62.24 62.67 62.89 62.93 62.87 62.85 62.79 62.76 62.73 -9999 -9999 -9999 -9999 -9999 -9999 -9999 -9999 -9999 -9999 -9999 -9999
-9999 77.9 77.97 77.9 77.85 77.93 77.91 77.96 78.03 78.06 78.01 77.7 77.03 76.52 76.2 75.98 75.83 75.64 75.46 75.37 76.16 77.94 79.52 80.03 80.43 79.94 79.42 78.9 78.35 77.93 77.55 77.04 76.56 75.97 75.42 74.79 74.43 73.98 73.6 73.21 72.92 72.43 71.89 71.76 71.09 70.33 70.03 69.69 69.29 68.77 68.08 67.47 66.67 65.46 64.13 63.76 64.11 64.74 64.62 63.52 62.2 61.66 61.63 61.56 61.61 61.66 60.86 59.63 59.46 59.59 59.54 59.65 59.66 59.35 57.78 57.54 57.57 58.95 58.39 56.6 54.49 53 52.34 51.48 50.91 50.91 50.9 50.89 50.94 51 50.96 50.93 50.92 50.88 50.9 50.91 50.91 51.34 53.66 54.5 56.65 56.89 56.84 56.99 57.18 57.17 57.14 57.13 57.09 57.1 57.11 57.17 57.16 57.13 56.95 55.99 53.31 50.95 50.92 50.97 51.02 51.06 50.92 53.13 54.32 54.3 54.28 54.18 54.3 54.43 55.6 57.54 58.37 58.38 58.31 58.27 58.29 58.23 58.23 58.19 58.18 58.17 58.22 58.18 58.19 58.27 58.28 58.19 58.13 58.14 58.13 58.09 58.05 57.99 57.87 57.96 58.04 58.05 58.17 58.16 58.17 58.2 58.15 58.05 58.05 58.05 57.99 57.98 58.01 58 58.01 58.03 58.02 58.05 58.06 58.16 58.17 58.2 58.02 58.21 58.21 58.22 58.23 58.17 58.15 58.17 58.17 58.39 58.3 58.38 58.41 58.31 58.26 58.2 58.17 58.18 58.15 58.12 58.08 58.09 58.16 58.16 58.2 58.32 58.24 58.4 58.5 58.63 58.66 58.64 58.77 58.89 58.9 58.82 58.69 58.62 57.82 56.91 56.11 55.41 54.6 54.56 54.59 54.53 54.44 54.5 54.5 54.44 54.37 54.32 54.32 53.06 52.82 52.61 52.39 52.41 51.67 50.96 50.84 50.83 50.82 51.99 52.66 52.83 53.16 53.74 54.5 54.68 54.33 54.52 54.64 54.47 54.53 54.38 54.48 54.27 54.24 54.23 54.6 54.71 53.78 53.65 53.36 53.77 53.02 52.98 52.88 53.06 52.45 52.76 53.24 53.52 55.05 56.92 59.27 59.8 59.85 60.04 60.1 60.28 60.21 60.16 60.07 60.15 60.21 60.24 60.26 60.48 59.31 57.5 56.58 56.36 56.15 55.62 54.57 56.6 56.75 56.73 56.86 56.83 56.93 57.04 57.66 58.07 58.09 58.37 58.33 58.3 58.18 58.06 58.07 57.86 57.86 57.96 58.03 58.06 58 57.96 57.83 57.73 57.91 57.87 58.55 58.78 58.79 58.82 58.79 58.78 58.73 58.84 58.7 58.65 58.82 59.01 59.18 59.37 59.61 59.85 59.96 60.09 60.29 60.46 60.62 60.83 60.98 61.18 61.43 61.58 61.77 61.94 62.1 62.25 62.34 62.52 62.59 62.66 62.72 62.75 62.76 62.83 62.83 62.82 62.8 62.79 62.75 62.73 62.69 62.75 62.81 62.81 62.78 62.77 62.8 62.63 62.53 62.55 62.66 62.65 62.6 62.51 62.52 62.59 62.63 62.64 62.63 62.6 62.6 62.58 62.55 62.49 62.41 62.3 62.2 62.17 62.17 62.13 62.06 62.09 62.14 62.18 62.2 62.19 62.16 62.21 62.16 62.04 62.1 62.27 62.21 62.22 62.39 62.39 62.24 62.22 62.11 61.96 62 61.98 61.99 62.03 62.36 62.99 62.84 62.84 62.8 62.76 -9999 -9999 -9999 -9999 -9999 -9999 -9999 -9999 -9999 -9999 -9999 -9999
-9999 77.92 77.88 77.85 77.84 77.8 77.83 77.79 77.86 77.83 77.95 77.75 77.07 76.39 75.95 75.56 75.4 75.3 75.28 75.14 76.59 78.16 79.83 80.33 80.54 80.43 79.72 78.56 77.72 77.21 76.86 76.22 75.94 75.39 74.79 74.38 73.91 73.3 72.92 72.5 72.04 71.74 70.49 70.81 70.32 69.71 69.41 68.9 68.4 67.9 67.13 65.78 65.39 64.01 63.74 64.2 64.6 64.4 63.28 62.03 61.59 61.6 61.49 61.52 61.56 60.77 59.56 59.38 59.51 59.51 59.65 59.61 59.33 57.76 57.64 57.66 60 59.49 56.57 54.68 53.51 52.37 51.66 50.99 50.94 50.91 50.93 50.92 50.91 50.9 50.98 50.95 50.92 50.9 50.88 50.91 50.84 52.76 54.55 56.38 56.95 56.95 56.98 57.1 57.14 57.22 57.21 57.16 57.13 57.12 57.11 57.05 57.02 57.06 57.1 56.24 53.25 50.88 50.86 50.84 50.86 50.92 50.96 53.61 54.18 54.23 54.23 54.23 54.26 54.47 56.2 58.24 58.34 58.3 58.31 58.29 58.24 58.24 58.23 58.19 58.17 58.15 58.26 58.2 58.19 58.21 58.21 58.2 58.17 58.13 58.11 58.1 57.99 58.02 57.93 58.12 58.14 58.11 58.2 58.2 58.2 58.22 58.11 58.07 58.08 58.03 57.99 58.04 58.01 57.97 58 58 57.96 58.05 58.1 58.07 58.09 58.22 58.39 58.06 58.27 58.28 58.29 58.28 58.17 58.19 58.22 58.62 58.48 58.36 58.37 58.37 58.29 58.19 58.16 58.17 58.09 58.04 58.1 58.03 58.06 58.22 58.23 58.25 58.18 58.26 58.29 58.39 58.56 58.58 58.77 59.1 58.88 58.87 58.74 58.71 58.27 57.65 56.37 54.97 54.29 54.41 54.53 54.49 54.37 54.41 54.64 54.53 54.48 54.42 54.45 53.33 52.89 52.57 52.37 52.42 51.8 50.95 50.74 50.79 50.77 51.7 52.42 52.91 53.06 53.95 54.43 54.82 54.42 54.65 54.69 54.57 54.4 54.52 54.33 54.36 54.44 54.17 54.48 54.74 53.78 53.58 53.49 53.13 52.78 53.06 53.1 52.94 52.42 52.92 53.32 54.2 56.19 57.98 59.72 59.82 59.89 60.09 60.13 60.06 60.15 59.93 60.23 60.06 60.18 60.3 60.24 60.3 59.12 56.58 56.92 56.87 56.68 56.27 56.11 54.73 55.68 56.79 56.86 56.82 56.8 57.13 57.62 57.99 58.25 58.16 58.16 58.18 57.98 58.03 58 57.8 57.92 57.99 58.15 57.99 57.87 57.87 57.79 57.86 57.94 57.75 58.04 58.8 58.77 58.78 58.83 58.76 58.77 58.83 59.1 58.86 58.76 58.99 59.13 59.36 59.55 59.75 59.97 60.07 60.31 60.49 60.68 60.87 61.02 61.21 61.4 61.55 61.72 61.88 62.02 62.22 62.46 62.56 62.69 62.79 62.77 62.85 63 63.06 63.11 63.1 63.12 63.17 63.05 63.06 63 62.95 62.99 63.03 63.02 63.02 63.06 62.86 62.61 62.63 62.76 62.77 62.68 62.64 62.6 62.55 62.43 62.39 62.4 62.36 62.28 62.19 62.18 62.18 62.17 62.22 62.17 62.04 62.07 62.06 61.99 61.99 62 62.09 62.14 62.09 62.21 62.25 62.29 62.13 62.08 62.31 62.22 62.31 62.39 62.14 62.02 61.95 61.91 61.92 61.95 61.95 61.96 61.99 61.96 61.99 62.01 62.82 62.92 62.81 -9999 -9999 -9999 -9999 -9999 -9999 -9999 -9999 -9999 -9999 -9999 -9999
-9999 77.81 77.86 77.84 77.79 77.74 77.76 77.71 77.71 77.74 77.78 77.69 77.25 76.35 75.73 75.41 74.98 74.81 74.67 74.99 76.49 77.9 79.38 80.33 80.44 79.62 79.95 79.38 77.57 76.78 76.2 74.49 75.29 74.83 74.27 73.77 73.37 72.97 72.42 71.83 71.37 70.73 70.39 69.99 69.53 69.2 68.43 68.17 67.7 67.21 66.22 65.14 64.39 63.93 64.41 64.52 63.94 62.79 61.73 61.56 61.49 61.5 61.46 61.53 60.54 59.5 59.38 59.46 59.43 59.6 59.56 59.23 57.88 57.72 57.78 57.95 58.74 56.87 54.41 53.28 52.46 51.87 50.96 51.03 50.98 50.93 50.91 50.93 50.94 50.93 50.92 50.97 50.93 50.9 50.9 50.88 52.25 53.67 56.41 56.95 57.02 57.02 57.03 57.12 57.11 57.12 57.13 57.19 57.18 57.17 57.14 57.12 57.05 57.03 57.01 55.99 52.85 50.94 50.99 50.89 50.9 50.85 51.48 54.45 54.28 54.19 54.2 54.14 54.33 55.11 56.93 58.33 58.48 58.37 58.27 58.21 58.25 58.23 58.2 58.2 58.17 58.17 58.14 58.17 58.26 58.17 58.16 58.16 58.12 58.15 58.1 58.06 58.1 58.03 58.12 58.17 58.27 58.41 58.28 58.27 58.13 58.16 58.17 58.03 58.04 58.02 58.01 58 58 57.98 58 57.98 57.97 58.07 58.15 58.07 58.08 58.2 58.22 58.07 58.23 58.22 58.61 58.27 58.28 58.24 58.67 58.16 58.22 58.42 58.34 58.34 58.27 58.14 58.15 58.17 58.15 58.05 58.07 58.03 58.1 58.24 58.29 58.15 58.09 58.2 58.28 58.17 58.28 58.42 58.55 58.86 58.94 59 58.87 58.65 58.76 58.28 57.3 55.53 54.51 54.4 54.37 54.64 54.51 54.45 54.6 54.56 54.47 54.39 54.31 53.32 52.66 52.49 52.31 52.35 51.78 51.13 50.73 50.72 50.73 51.79 52.68 52.79 52.83 53.33 54.57 54.73 54.62 54.63 54.72 54.55 54.53 54.55 54.47 54.44 54.44 54.66 52.95 52.92 53.03 53.08 53.26 52.89 52.95 53.08 53.08 52.66 52.7 53.27 53.42 55.03 56.95 59.21 59.76 59.74 59.92 59.97 59.87 60.05 60.11 60.17 60.3 60.16 60.25 60.31 60.42 60.31 58.32 57.08 57.18 57.32 57.15 57.38 56.24 56.21 55.43 56.51 56.73 56.74 56.89 57.43 57.67 57.82 57.96 58.02 57.97 57.88 57.98 58.02 57.8 57.83 57.97 58.16 57.99 57.92 57.85 57.79 57.84 57.9 57.64 57.71 57.85 57.9 58.32 58.76 58.75 58.79 58.81 58.94 59.23 59.12 58.88 58.94 59.05 59.24 59.49 59.7 59.88 60.03 60.23 60.4 60.6 60.76 60.91 61.12 61.4 61.64 61.89 62.16 62.86 63.4 63.56 63.66 63.6 63.41 63 63.06 63.36 63.38 63.36 63.43 63.44 63.36 63.29 63.18 63.18 63.18 63.16 63.17 63.18 63.21 63.15 63.05 62.74 62.73 62.79 62.88 62.72 62.62 62.67 62.58 62.47 62.41 62.33 62.36 62.28 62.2 62.2 62.29 62.23 62.23 62.19 62.1 62.01 62.04 61.99 62.03 62.07 62.19 62.23 62.25 62.27 62.27 62.32 62.25 62.14 62.28 62.17 62.31 62.3 62.2 62.12 61.9 61.87 61.92 62.08 62.11 62.01 62.04 62.02 62.11 62.01 61.98 61.98 62.33 -9999 -9999 -9999 -9999 -9999 -9999 -9999 -9999 -9999 -9999 -9999 -9999
-9999 77.76 77.77 77.73 77.68 77.69 77.71 77.65 77.67 77.63 77.59 77.62 77.35 76.69 76.02 75.42 74.81 74.37 74.19 74.47 75.82 77.38 78.94 80.23 80.22 79.31 79.48 78.7 77.28 76.48 75.7 75.47 74.87 74.25 73.67 73.31 72.79 72.26 71.77 71.4 70.7 70.17 69.63 69.25 68.72 68.5 67.98 67.42 67.08 66.22 65.41 64.42 64.3 64.2 64.38 63.46 62.29 61.57 61.47 61.43 61.36 61.35 61.44 60.37 59.42 59.26 59.43 59.37 59.52 59.45 59.15 57.93 57.85 57.94 57.61 57.3 57.12 55.18 53.92 52.55 52.18 50.93 51.04 51.06 51.01 50.97 50.92 50.91 50.93 50.95 50.95 50.94 50.95 50.92 50.89 52.15 53.34 55.15 56.93 57.07 56.95 57.16 57.04 57.07 57.11 57.11 57.09 57.12 57.15 57.19 57.18 57.19 57.13 57.09 56.98 54.91 52.22 50.81 50.83 50.89 50.86 50.88 51.85 54.44 54.27 54.27 54.12 54.15 54.32 55.06 56.86 58.44 58.31 58.28 58.33 58.16 58.24 58.24 58.22 58.2 58.19 58.18 58.13 58.14 58.1 58.15 58.13 58.12 58.13 58.15 58.06 58.09 58.12 58.24 58.25 58.17 58.34 58.38 58.39 58.44 58.42 58.23 58.1 58.09 58.06 58.02 57.96 57.97 57.98 57.97 57.98 57.95 58.02 58.05 58.19 58.22 58.21 58.22 58.08 58.17 58.29 58.24 58.34 58.37 58.25 58.19 58.2 58.55 58.08 58.16 58.2 58.14 58.18 58.18 58.31 58.28 58.11 58.08 58.05 57.99 58.09 58.16 58.23 58.24 58.17 58.25 58.24 58.1 58.19 58.24 58.4 58.57 58.76 58.87 58.99 59 58.75 58.61 58 56.66 55.13 54.57 54.34 54.57 54.58 54.52 54.62 54.57 54.5 54.42 54.33 53.55 52.79 52.61 52.37 52.55 52.03 50.92 50.73 50.75 50.77 51.6 52.67 52.78 53.03 53.21 54.49 54.74 54.85 54.79 54.87 54.74 54.6 54.55 54.62 54.53 54.3 55.22 53.3 52.77 53 52.92 53.37 52.9 52.94 52.8 52.64 52.44 53.17 53.22 54.08 56.19 58.09 59.68 59.77 59.6 59.95 59.83 59.92 60.03 60.01 60.08 60.06 60.12 60.24 60.24 60.3 60.35 57.48 57.04 56.16 56.07 56.11 56.67 56.44 56.4 56.61 56.6 56.63 56.75 57.24 57.41 57.61 57.83 57.87 57.83 57.81 57.8 57.96 57.92 57.79 57.92 57.99 58 57.91 57.88 57.81 57.75 57.9 57.7 57.73 57.79 57.83 57.98 58.03 58.4 59.14 58.82 58.86 59.07 59.46 59.22 58.97 59.19 59.03 59.09 59.47 59.8 60.14 60.36 60.51 60.69 60.84 60.99 61.34 62.21 62.84 63.11 63.3 63.55 63.66 63.9 63.98 64.02 63.95 63.51 63.24 63.4 63.75 63.61 63.58 63.51 63.46 63.48 63.36 63.34 63.32 63.31 63.32 63.3 63.28 63.29 63.28 63.19 62.9 62.89 62.9 62.9 62.7 62.63 62.68 62.63 62.46 62.42 62.42 62.38 62.3 62.24 62.3 62.43 62.37 62.33 62.31 62.27 62.49 62.37 62.23 62.45 62.28 62.25 62.23 62.22 62.25 62.24 62.28 62.37 62.16 62.22 62.12 62.33 62.19 62.06 61.97 61.79 61.84 61.93 62.25 62.16 62.14 62.14 62.12 62.17 62.13 62.2 62.12 62.01 -9999 -9999 -9999 -9999 -9999 -9999 -9999 -9999 -9999 -9999 -9999 -9999
-9999 77.69 77.67 77.61 77.55 77.58 77.61 77.64 77.6 77.55 77.48 77.54 77.4 76.87 76.43 75.87 74.95 74.15 73.72 73.72 74.66 76.06 77.66 79.29 79.98 79.33 79.2 78.21 77.03 76.24 75.35 74.77 74.24 73.76 73.14 72.58 72 71.56 71.15 70.39 70.17 69.43 68.99 68.65 68.18 67.73 67.25 66.89 66.18 65.82 64.62 64.32 64.18 64.08 63.28 62.03 61.36 61.44 61.35 61.29 61.31 61.35 60.31 59.35 59.25 59.38 59.31 59.44 59.41 58.94 58.03 57.92 57.96 57.6 57.29 57.23 55.82 54.82 53.69 52.19 50.98 50.94 50.95 50.98 51 51 50.95 50.9 50.91 50.93 50.95 50.97 50.96 50.96 52.62 53.56 55.27 56.9 57.1 57 56.96 57.01 56.97 56.97 57 57.08 57.08 57.1 57.13 57.15 57.15 57.17 57.15 57.07 56.74 54.18 51.61 50.85 50.85 50.85 50.85 50.84 51.15 54.17 54.26 54.19 54.25 54.28 54.33 54.9 56.89 58.26 58.2 58.23 58.21 58.17 58.33 58.35 58.27 58.21 58.22 58.23 58.17 58.12 58.12 58.12 58.13 58.1 58.1 58.13 58.09 58.13 58.16 58.24 58.3 58.35 58.48 58.49 58.49 58.5 58.51 58.47 58.11 58.13 58.08 58.08 58.05 57.95 57.87 57.97 57.91 58.01 58.05 58.21 58.22 58.28 58.09 58.09 58.04 58.27 58.23 58.24 58.23 58.16 58.08 58.26 58.33 58.05 57.99 58.21 58.12 58.1 58.12 58.21 58.13 58.24 58.13 58.14 57.99 58.1 58.16 58.25 58.17 58.17 58.18 58.2 58.14 58.12 58.2 58.19 58.18 58.39 58.59 58.69 58.87 58.91 58.8 58.7 58.56 57.26 56.37 54.64 54.53 54.53 54.61 54.55 54.64 54.67 54.59 54.44 54.34 53.65 52.88 52.66 52.45 52.56 52.19 50.75 50.8 50.85 50.87 51.36 52.45 52.81 52.98 53.13 54.59 54.7 54.94 54.81 54.83 54.79 54.64 54.68 54.66 54.5 54.97 55.16 53.19 53.07 52.9 53.02 52.83 52.68 52.5 52.63 52.6 52.99 53.29 53.5 54.98 56.85 59.23 59.72 59.51 59.71 59.83 59.85 60.04 60.04 60 60.02 60 60.12 60.11 60.22 60.15 58.5 57.22 55.75 55.89 55.91 56.12 56.31 56.36 56.49 56.46 56.54 56.7 55.52 55.25 56.97 57.51 57.74 57.72 57.72 57.73 57.9 57.89 57.76 57.84 57.95 58.01 57.92 57.81 57.79 57.72 57.83 57.84 57.72 57.77 57.84 57.94 58.13 58.03 58.5 60.26 60.26 59.48 59.29 59.45 59.37 59.12 59.15 58.97 59.14 59.41 59.81 60.36 61.2 61.67 61.79 62.22 62.62 62.93 63.34 63.54 63.77 64.39 65.14 65.32 64.85 64.5 64.54 64.12 63.76 63.56 63.74 63.9 63.75 63.7 63.69 63.64 63.63 63.61 63.59 63.41 63.44 63.46 63.43 63.44 63.44 63.38 63.33 63.14 63.02 63.12 63.09 62.82 62.78 62.63 62.66 62.55 62.52 62.63 62.56 62.51 62.48 62.44 62.32 62.27 62.27 62.26 62.23 62.22 62.24 62.27 62.53 62.29 62.34 62.33 62.28 62.18 62.2 62.22 62.3 62.19 62.16 62.25 62.57 62.15 62.05 61.98 61.83 61.87 62.06 62.21 62.14 62.18 62.27 62.28 62.13 62.13 62.13 62.37 62.21 -9999 -9999 -9999 -9999 -9999 -9999 -9999 -9999 -9999 -9999 -9999 -9999
-9999 77.61 77.59 77.55 77.53 77.54 77.5 77.56 77.5 77.45 77.39 77.36 77.26 76.91 76.72 76.34 75.66 74.66 73.41 73.02 72.86 73.67 75.25 77.15 78.96 79.58 78.87 77.97 77.08 76.24 75.16 74.5 73.69 73.11 72.51 72.01 71.37 70.89 70.45 70.13 69.6 69.03 68.51 68.12 67.69 67.1 66.7 66.01 65.48 64.68 64.24 64.06 63.71 62.97 61.99 61.37 61.34 61.26 61.26 61.26 61.27 60.25 59.33 59.2 59.34 59.21 59.39 59.4 58.88 58.08 58.02 58.05 57.96 57.54 57.37 56.71 55.05 54.12 52.32 51.12 50.96 50.9 50.89 50.89 50.91 50.93 50.96 50.94 50.9 50.92 50.93 50.95 51.03 52.34 54.08 54.69 56.82 56.97 57.02 57.07 56.91 57.08 57.01 56.96 57 56.87 56.84 57 57.09 57.1 57.14 57.15 57.14 56.84 56.33 54.02 51.35 50.99 50.9 50.82 50.84 50.85 51.43 52.34 54 54.53 54.73 54.33 54.45 55.04 57.12 58.37 58.35 58.32 58.22 58.26 58.36 58.43 58.31 58.31 58.24 58.16 58.16 58.13 58.12 58.09 58.11 58.11 58.08 58.07 58.15 58.11 58.21 58.35 58.47 58.46 58.47 58.48 58.49 58.49 58.5 58.5 58.34 58.24 58.09 58.09 58.01 57.96 57.92 57.93 57.93 58.02 58.11 58.23 58.23 58.28 58.12 58.05 58.05 58.14 58.14 58.16 58.23 58.11 57.97 58.09 58 57.98 58.03 58.02 58.03 58.01 58.09 58.06 58.13 58.1 58.18 58.1 58.1 58.57 58.54 58.08 58.22 58.14 58.29 58.33 58.2 58.11 58.11 58.17 58.13 58.24 58.44 58.6 58.78 58.86 58.89 58.9 58.56 57.87 57.21 55.66 54.4 54.46 54.56 54.5 54.57 54.72 54.58 54.55 54.35 53.83 52.91 52.71 52.46 52.52 51.97 50.76 50.77 50.82 50.79 51.3 52.55 52.79 52.97 53.18 54.55 54.75 54.91 54.95 54.82 54.66 54.75 54.66 54.64 54.66 55.38 54.49 53.08 53.19 53.22 53.06 52.79 52.68 52.74 52.85 52.62 53.27 53.37 54.11 56.01 57.84 59.65 59.75 59.57 59.74 59.82 59.88 59.97 60.15 59.97 59.89 60.12 60.02 59.47 60.14 58.78 57.93 56.14 55.99 56.07 55.99 56.06 56.07 56.42 56.59 56.45 56.56 56.66 57.52 56.05 54.65 55.99 57.54 57.69 57.71 57.84 57.87 57.88 57.84 57.9 58.05 57.89 57.82 57.8 57.7 57.83 57.87 57.72 57.72 57.8 57.86 58.04 58.28 58.55 58.69 60.05 60.3 60.43 60.24 59.67 59.34 59.26 59.18 59.2 59.36 60.72 61.73 61.8 62.06 62.3 62.53 62.8 63.05 63.66 64.01 64.26 64.68 65.67 65.48 65.32 64.98 64.75 64.57 64.31 64.05 63.86 64.05 63.92 63.86 63.89 63.9 63.78 63.77 63.79 63.85 63.51 63.51 63.49 63.47 63.44 63.37 63.35 63.39 63.29 63.15 63.25 63.23 62.66 62.79 62.6 62.64 62.62 62.64 62.62 62.65 62.58 62.51 62.41 62.41 62.52 62.59 62.33 62.28 62.25 62.34 62.29 62.48 62.29 62.46 62.39 62.3 62.18 62.17 62.41 62.34 62.22 62.11 62.25 62.29 62.15 62.05 61.9 61.82 61.91 62.13 62.16 62.25 62.25 62.25 62.28 62.3 62.13 62.13 62.27 62.16 -9999 -9999 -9999 -9999 -9999 -9999 -9999 -9999 -9999 -9999 -9999 -9999
-9999 77.56 77.5 77.48 77.45 77.42 77.46 77.46 77.43 77.41 77.31 77.2 77.18 77.22 76.94 76.82 76.5 75.96 74.62 72.64 72.29 71.84 72.71 75.14 76.95 78.3 77.37 77.12 76.3 76.02 74.83 74.37 73.28 72.61 71.97 71.4 70.87 70.37 69.97 69.5 69.18 68.61 68.15 67.5 66.98 66.69 65.86 65.49 64.76 64.23 63.69 63.72 62.8 61.71 61.3 61.26 61.18 61.14 61.2 61.19 60.23 59.25 59.13 59.23 59.18 59.31 59.35 58.79 58.16 58.05 58.14 58.19 57.7 57.54 56.92 55.17 54.56 52.67 51.43 50.92 50.94 50.93 50.93 50.9 50.9 50.89 50.89 50.89 50.92 50.9 50.92 50.84 51.82 53.04 54.3 56.42 56.99 57.13 57.14 57.08 57.03 57.03 57.13 56.88 56.9 56.81 56.93 56.97 56.87 57.19 57.13 57.08 57.07 56.92 56.33 53.62 51.25 50.88 50.87 50.87 50.87 50.88 50.92 52.04 52.42 52.72 52.98 53.54 54.53 55.63 56.66 58.27 58.42 58.32 58.25 58.19 58.34 58.42 58.37 58.32 58.37 58.17 58.14 58.13 58.18 58.1 58.1 58.07 58.09 58.08 58.16 58.18 58.24 58.47 58.49 58.56 58.44 58.48 58.48 58.49 58.5 58.45 58.29 58.19 58.1 58.04 58.03 57.91 57.92 57.89 57.98 58.13 58.22 58.26 58.29 58.3 58.29 58.05 58.03 58.15 58.28 58.04 58.06 58 58.1 58.17 58.11 58.12 58.1 58.06 58 58.49 58.07 58.08 58.68 58.14 58.23 58.12 58.22 58.26 58.16 58.08 58.19 58.24 58.22 58.3 58.19 58.19 58.13 58.04 58.19 58.24 58.38 58.46 58.57 58.81 58.73 58.82 58.81 58.59 58.23 56.93 55.01 54.66 54.62 54.59 54.51 54.57 54.56 54.6 54.34 53.9 52.93 52.65 52.4 52.59 52.03 50.8 50.72 50.73 50.73 51.47 52.47 52.73 52.93 53.17 54.57 54.8 54.87 54.97 54.94 54.76 54.86 54.84 54.73 54.69 54.58 53.58 53.14 53.09 53.54 53.49 52.79 52.7 52.88 52.88 53.01 53.49 53.53 55.23 56.84 59.38 59.74 59.66 59.74 59.77 59.76 59.89 59.89 59.88 59.92 59.99 60.09 60.09 60.02 58.31 57.73 56.28 56.06 56.03 56.23 56.05 55.89 56.3 56.32 56.32 56.34 56.44 57.51 58.07 57.46 57.27 55.58 55.12 56.98 57.78 57.89 57.84 57.73 57.85 58 57.88 57.81 57.77 57.7 57.75 57.8 57.84 57.84 57.82 57.83 57.92 58.25 58.48 59.35 59.47 60.65 60.34 60.29 60.11 59.78 59.34 59.33 59.16 59.55 61.28 61.56 61.79 61.92 62.06 62.35 62.52 63.08 64.9 65.46 65.51 65.46 65.62 65.53 65.36 65.29 64.99 64.79 64.71 64.6 64.24 64.16 64.25 64.12 64.06 64.05 64.04 64.03 64.12 64.19 64.2 63.53 63.49 63.47 63.44 63.39 63.36 63.35 63.39 63.32 63.31 63.38 63.27 62.43 62.57 62.59 62.57 62.63 62.68 62.71 62.6 62.55 62.52 62.46 62.42 62.53 62.61 62.75 62.26 62.23 62.31 62.23 62.4 62.29 62.37 62.32 62.31 62.14 62.17 62.3 62.13 62.19 62.21 62.33 62.19 62.08 62.03 61.93 61.89 62.01 62.24 62.24 62.23 62.23 62.25 62.27 62.29 62.21 62.12 62.13 62.15 -9999 -9999 -9999 -9999 -9999 -9999 -9999 -9999 -9999 -9999 -9999 -9999
-9999 77.51 77.48 77.48 77.47 77.45 77.41 77.39 77.35 77.28 77.25 77.2 77.1 76.96 77.3 77.69 77.87 78.36 78.14 76.67 71.95 71.5 71.06 72.76 74.76 76.33 77.65 77.58 76.52 75.83 74.72 74 72.86 72.16 71.49 71.01 70.5 69.91 69.38 69.01 68.48 68.04 67.5 66.89 66.59 65.86 65.4 65.04 64.67 64.24 63.69 63.03 61.78 61.11 61.22 61.07 61.02 61.12 61.11 60.08 59.18 59.04 59.17 59.13 59.28 59.28 58.66 58.25 58.08 58.2 58.18 58.04 57.64 57.31 55.2 54.52 53.33 51.92 50.97 50.97 50.97 50.96 50.96 50.95 50.9 50.9 50.9 50.9 50.9 50.89 50.89 51.16 52.9 54.15 56.06 56.99 57.13 57.08 57.32 57.1 57.27 57.51 56.95 56.82 56.84 56.86 56.9 56.95 57.06 57.01 57.11 57.08 56.89 56.84 56.51 53.35 51.03 50.87 50.88 50.87 50.88 50.9 50.85 51.94 52.36 52.56 52.69 52.91 55.39 56.51 57.56 58.21 58.36 58.36 58.22 58.51 58.38 58.3 58.37 58.34 58.23 58.13 58.12 58.14 58.14 58.15 58.09 58.09 58.08 58.16 58.18 58.22 58.25 58.43 58.5 58.47 58.44 58.5 58.46 58.48 58.49 58.39 58.26 58.43 58.16 58.04 57.96 57.97 57.94 58.04 58.04 58.16 58.26 58.36 58.3 58.28 58.27 58.28 58.34 58.21 58.21 58.09 58.05 57.97 58.12 58.25 58.17 58.06 58.12 58.04 58.02 58.06 58.06 58 58.16 58.24 58.22 58.13 58.21 58.1 58.06 58.08 58.15 58.17 58.27 58.35 58.44 58.5 58.08 58.05 58.06 58.2 58.39 58.55 58.48 58.51 58.64 58.7 58.91 58.69 58.6 57.64 55.91 54.74 54.7 54.66 54.6 54.54 54.6 54.61 54.34 53.7 52.92 52.63 52.46 52.37 51.9 50.88 50.71 50.74 50.74 51.5 52.47 52.68 52.86 53.15 54.64 54.77 54.75 54.93 54.84 54.86 54.75 54.78 54.75 54.67 54.63 54.47 54.63 54.5 54.68 53.48 52.85 52.81 52.99 53.12 53.06 53.32 54.24 56.17 58.1 59.68 59.73 59.58 59.68 59.73 59.75 59.78 59.85 59.86 59.89 59.92 60.01 60.01 58.99 57.04 56.95 56.15 56.5 56.15 55.95 56.02 56.02 56.26 56.21 56.26 56.39 57.77 58.6 59.13 58.45 58.14 57.73 56.72 55.13 57.76 57.81 57.72 57.81 57.86 57.99 57.82 57.76 57.7 57.62 57.77 57.72 56.69 57.87 58.08 58.14 58.11 58.51 59.5 60.17 60.26 60.51 60.59 60.34 60.1 59.79 59.44 59.41 59.43 61.21 61.35 61.66 61.78 61.97 62.17 62.36 62.73 63.69 64.4 65.68 65.84 65.69 65.48 65.39 65.38 65.04 64.88 64.83 64.84 64.61 64.43 64.27 64.58 64.51 64.48 64.53 64.55 64.5 64.44 64.44 64.31 63.63 63.38 63.35 63.34 63.33 63.32 63.36 63.38 63.4 63.38 63.66 63.35 62.59 62.56 62.59 62.62 62.65 62.65 62.68 62.55 62.54 62.53 62.52 62.42 62.54 62.72 62.77 62.25 62.21 62.27 62.18 62.32 62.3 62.29 62.27 62.33 62.13 62.14 62.28 62.13 62.12 62.3 62.51 62.11 62.03 61.93 61.88 61.9 62.09 62.22 62.22 62.21 62.22 62.25 62.27 62.29 62.31 62.14 62.12 62.13 -9999 -9999 -9999 -9999 -9999 -9999 -9999 -9999 -9999 -9999 -9999 -9999
-9999 77.42 77.44 77.46 77.41 77.41 77.29 77.32 77.32 77.31 77.23 77.11 76.92 76.85 78.06 78.88 79.25 79.8 80.54 79.52 76.58 74.96 70.72 70.33 69.97 74 75.22 76.18 76.36 75.42 74.63 73.77 72.55 71.66 71.08 70.61 70.14 69.52 69.19 68.53 67.97 67.68 67.3 66.41 65.84 65.44 64.94 64.59 64.17 63.39 62.88 62.27 61.16 61.07 61.05 60.95 61.03 60.91 60.06 59.11 58.97 59.08 59.06 59.22 59.26 58.64 58.27 58.15 58.25 58.29 57.97 57.66 57.39 55.77 54.03 53.02 52.25 50.95 50.9 50.97 51 51 50.99 50.99 50.92 50.91 50.91 50.91 50.91 50.91 51.63 52.89 53.51 54.87 56.91 57.11 57.08 57.12 57.28 57.9 57.44 56.97 57.03 56.87 56.9 56.88 56.97 56.99 57.08 57.01 56.84 57.09 56.81 56.87 55.74 52.89 51.02 50.89 50.9 50.95 50.9 50.94 50.88 51.98 52.22 52.31 52.53 52.8 55.92 56.69 57.35 58.31 58.31 58.17 58.28 58.32 58.32 58.31 58.34 58.3 58.31 58.33 58.14 58.1 58.1 58.07 58.09 58.07 58.07 58.14 58.12 58.2 58.3 58.36 58.43 58.49 58.48 58.43 58.5 58.47 58.48 58.48 58.24 58.21 58.16 58.07 58.06 58.01 58.03 58.01 58.12 58.25 58.27 58.32 58.3 58.29 58.26 58.26 58.24 58.23 58.08 58.07 57.96 58.1 58.31 58.19 58.14 58.06 58.1 58.1 58.11 58.06 58.08 58.13 58.31 58.29 58.28 58.41 58.23 58.21 58.23 58.14 58.16 58.22 58.29 58.38 58.31 58.1 58.36 58.19 58.15 58.19 58.35 58.41 58.42 58.58 58.5 58.72 58.72 58.67 58.66 58.31 56.73 54.87 54.73 54.64 54.72 54.62 54.63 54.64 54.5 53.59 52.96 52.74 52.54 52.4 51.97 50.93 50.74 50.7 50.74 51.55 52.54 52.72 52.98 53.16 54.47 54.73 54.75 54.84 54.9 54.69 54.75 54.78 54.85 54.84 54.39 54.65 55.17 55.06 55.31 54.76 52.59 53.07 53.43 53.37 52.79 53.63 55.29 57.09 59.42 59.74 59.64 59.7 59.73 59.65 59.66 59.72 59.76 59.88 60 60.17 59.6 58.36 56.79 56.5 56.63 56.15 55.99 55.91 55.97 55.9 56.22 56.17 56.17 56.29 57.44 57.53 57.88 58.4 59.13 57.84 57.7 57.68 57.81 57.81 57.8 57.74 57.81 58.01 57.85 57.73 57.75 57.6 57.71 57.7 56.83 56.13 56.71 58.17 58.36 58.59 58.83 59.18 59.59 60.76 60.22 60.32 60.23 60.13 59.69 59.59 59.43 60.31 61.21 61.43 61.6 61.84 62.08 62.32 62.94 63.57 64.32 65.43 65.91 65.93 65.84 65.64 65.44 65.23 65.08 65.09 64.89 65.1 64.52 64.4 64.35 64.32 64.41 64.5 64.63 64.66 64.65 64.58 64.62 64.45 63.71 63.46 63.46 63.43 63.44 63.38 63.42 63.49 63.38 63.38 63.52 63.35 62.78 62.67 62.74 62.62 62.67 62.65 62.64 62.5 62.54 62.53 62.57 62.43 62.61 62.36 62.22 62.21 62.17 62.1 62.13 62.11 62.14 62.23 62.29 62.19 62.09 62.23 62.17 62.09 62.11 62.21 62.4 62.11 61.98 61.87 61.87 61.92 62.25 62.2 62.2 62.2 62.22 62.24 62.26 62.29 62.31 62.3 62.07 62.13 -9999 -9999 -9999 -9999 -9999 -9999 -9999 -9999 -9999 -9999 -9999 -9999
-9999 77.41 77.38 77.4 77.37 77.36 77.28 77.28 77.37 77.25 77.13 77.03 76.87 76.7 77.23 79.54 80.39 81.19 82.07 81.69 79.91 77.54 70.71 70.05 69.62 69.16 72.26 73.06 74.58 75.09 74.53 73.48 72.66 71.67 70.75 70.25 69.68 69.31 68.71 68.04 67.24 67.07 66.52 66.05 65.56 65.15 64.49 64.54 63.68 62.85 62.14 61.4 61.01 61.01 60.93 60.97 60.9 59.92 59.07 58.95 59.04 58.98 59.22 59.24 58.43 58.16 58.06 58.23 58.28 58.15 57.75 57.46 55.84 54.7 53.85 52.4 51.14 51.01 50.96 50.91 50.91 51.03 51.03 51.02 51.02 50.89 50.91 50.91 50.91 51.08 53.18 53.61 55.35 56.79 56.98 57.23 57.18 57.32 57.36 57.36 57.09 57.27 57.31 57.06 57 56.99 56.98 56.93 57.11 56.97 56.91 56.86 56.78 56.74 55.25 52.54 50.9 51.01 51 50.98 50.94 50.91 50.91 51.62 52.2 52.24 52.25 52.76 54.64 56.57 57.54 58.31 58.33 58.17 58.31 58.35 58.43 58.24 58.29 58.32 58.33 58.31 58.15 58.11 58.09 58.08 58.07 58.04 58.06 58.22 58.28 58.27 58.4 58.41 58.36 58.43 58.49 58.47 58.46 58.46 58.48 58.44 58.48 58.3 58.13 58.11 58.12 58.23 58.19 58.09 58.24 58.26 58.39 58.31 58.3 58.31 58.28 58.27 58.24 58.18 58.07 58 58.04 58.05 58.16 58.14 58.13 58.16 58.09 58.11 58.06 58.16 58.13 58.17 58.22 58.23 58.29 58.3 58.24 58.19 58.22 58.18 58.21 58.2 58.3 58.29 58.31 58.34 58.26 58.16 58.14 58.3 58.41 58.34 58.42 58.58 58.66 58.7 58.65 58.69 58.7 58.61 57.81 55.75 54.8 54.71 54.68 54.7 54.67 54.65 54.52 53.76 52.93 52.7 52.48 52.39 51.86 51.28 50.87 50.82 50.77 51.61 52.55 52.76 52.98 53.15 54.38 54.77 54.88 54.91 54.82 54.73 54.78 54.84 54.73 54.57 54.71 55.41 55.38 54.75 55.42 55.1 54.29 52.77 53.22 52.78 53.27 54.51 56.34 58.24 59.71 59.76 59.6 59.73 59.72 59.37 59.62 59.74 59.86 59.99 59.75 58.8 56.94 56.29 56.38 56.23 55.99 55.91 55.91 55.91 55.86 56.1 56.17 56.13 56.11 56.61 57.52 57.67 57.74 58.79 57.84 57.73 57.74 57.82 57.83 57.78 57.72 57.78 57.95 57.88 57.8 57.7 57.62 57.71 57.69 57.04 55.62 55.63 55.79 57.18 58.4 58.61 58.72 59.43 59.85 60.13 60.05 60.27 60.13 59.96 59.67 59.61 59.63 61.11 61.3 61.43 61.63 61.87 62.16 62.56 63.49 64.25 65.58 65.98 66.08 65.76 65.78 65.62 65.31 65.21 65.27 65.17 64.92 64.98 64.53 64.35 64.42 64.43 64.68 64.68 64.64 64.59 64.61 64.66 64.66 64.52 63.72 63.54 63.5 63.56 63.53 63.63 63.6 63.58 63.38 63.38 63.55 63.23 62.72 62.49 62.55 62.67 62.64 62.57 62.51 62.43 62.44 62.45 62.45 62.35 62.28 62.22 62.2 62.13 62.11 62.08 62.06 62.01 62.05 62.15 62.2 62.34 62 62.25 62.1 62.1 62.2 62.28 62.32 62.21 62.07 62.02 61.87 62.04 62.18 62.18 62.17 62.19 62.22 62.24 62.26 62.28 62.3 62.33 62.23 62.02 -9999 -9999 -9999 -9999 -9999 -9999 -9999 -9999 -9999 -9999 -9999 -9999
-9999 77.37 77.4 77.4 77.38 77.4 77.35 77.39 77.43 77.24 77.37 77.76 77.51 76.51 76.47 78.81 80.92 81.67 81.1 82.14 80.07 79.13 77.01 70.15 69.22 68.9 68.44 70.63 71.7 72.75 72.87 73.31 72.47 71.55 70.65 69.7 69.36 69 68.39 67.76 67.02 66.58 66.16 65.71 65.39 65.02 64.41 64.01 62.98 62.14 61.43 60.96 60.96 60.85 60.89 60.8 59.85 59 58.9 58.98 58.95 59.17 59.24 58.65 58.29 58.15 58.27 58.16 58.21 57.87 57.6 57.17 55.14 54.43 52.82 51.47 51.01 50.97 50.99 50.96 50.92 50.91 51.01 51.05 51.05 51 50.9 50.92 50.86 52.33 53.45 53.84 56.65 56.97 57.13 57.15 57.25 57.28 57.4 57.26 57.36 57.29 57.12 57.02 57.12 57.05 56.99 57.23 57.12 56.97 56.94 56.85 56.82 56.76 54.43 51.88 50.9 50.93 50.95 50.96 50.95 50.91 50.93 51.78 52.24 52.18 52.3 52.5 53.61 55.27 57.59 58.36 58.37 58.13 58.33 58.46 58.41 58.28 58.27 58.37 58.34 58.3 58.29 58.23 58.06 58.09 58.05 58.03 58.15 58.29 58.31 58.29 58.31 58.42 58.42 58.42 58.43 58.48 58.46 58.46 58.43 58.41 58.39 58.34 58.34 58.2 58.43 58.32 58.23 58.23 58.25 58.33 58.33 58.33 58.32 58.3 58.27 58.26 58.34 58.16 58.05 57.98 58.19 58.2 58.13 58.44 58.31 58.19 58.15 58.21 58.13 58.15 58.1 58.16 58.25 58.21 58.25 58.36 58.4 58.38 58.35 58.27 58.23 58.32 58.3 58.32 58.41 58.44 58.29 58.11 58.1 58.33 58.7 58.34 58.47 58.66 58.81 58.75 58.7 58.7 58.73 58.77 58.37 56.68 55.11 54.79 54.75 54.69 54.69 54.67 54.58 53.96 52.85 52.69 52.53 52.42 51.85 51.03 50.75 50.75 50.76 51.46 52.51 52.65 52.86 53.16 54.5 54.85 54.85 55 54.73 54.74 54.7 54.79 54.68 54.83 55.12 55.6 55.37 55.54 55.37 55.09 54.55 53.24 52.96 53.14 53.8 55.54 57.21 59.45 59.78 59.67 59.71 59.62 59.36 59.38 59.76 59.88 59.96 59.28 57.51 56.36 56.67 56.48 56.1 55.99 55.92 55.91 55.89 55.9 55.8 56.07 56.04 56.05 56.21 57.77 57.73 57.68 57.59 57.78 57.77 57.89 57.85 57.8 57.77 57.66 57.72 57.83 57.98 57.81 57.73 57.63 57.58 57.7 57.64 57.49 55.76 55.64 56.32 56.4 57.96 58.58 58.8 58.97 59.14 60 60.08 60.02 60.01 59.94 59.75 59.65 60.32 61.31 61.4 61.53 61.73 61.93 62.19 63.08 64.42 65.68 66 65.77 65.69 65.71 65.56 65.35 65.32 65.35 65.29 65.15 65.02 64.99 64.77 64.38 64.48 64.56 64.84 64.94 64.94 64.97 64.8 64.62 64.7 64.69 63.83 63.57 63.9 63.74 63.65 63.68 63.63 63.59 63.36 63.38 63.57 63.51 62.99 62.57 62.57 62.56 62.56 62.52 62.59 62.65 62.68 62.72 62.68 62.38 62.19 62.3 62.19 62.09 62.14 62.17 62.16 62.12 62.11 62.08 62.06 62.02 62.04 62.05 62.18 62.14 62.33 62.35 62.3 62.24 62.15 62.05 61.96 62.04 62.08 62.13 62.17 62.19 62.21 62.23 62.26 62.28 62.27 62.24 62.22 61.92 -9999 -9999 -9999 -9999 -9999 -9999 -9999 -9999 -9999 -9999 -9999 -9999
-9999 77.48 77.48 77.5 77.43 77.36 77.34 77.43 77.67 78.19 78.95 79.69 78.32 76.21 76.04 77.51 80.16 80.82 79.56 79.85 78.54 78.19 77.45 74.99 73.19 70.18 68.11 67.74 67.81 70.08 71.06 72.73 72.15 71.43 70.47 69.68 69.1 68.5 67.77 67.29 66.71 66.16 65.75 65.45 65.06 64.9 64.25 63.21 62.22 61.44 60.88 60.84 60.8 60.82 60.72 59.76 58.98 58.86 58.91 58.87 59.1 59.09 58.21 58.23 58.28 58.29 58.34 58.34 58.16 57.85 57.16 55.45 54.67 52.98 51.83 51.02 51.02 51.02 50.99 50.99 50.96 50.94 50.91 50.95 51.08 51.08 50.97 50.91 51.68 53.09 53.38 55.69 57.28 56.82 57.04 57.16 57.31 57.25 57.61 57.18 57.32 57.18 57.07 57.14 57.16 57.03 57.1 57.08 57.05 56.91 56.87 56.92 56.87 56.61 53.94 51.26 50.86 50.86 50.87 50.88 50.9 50.91 50.9 51.58 52.08 52.03 52.19 52.32 53.47 56.04 57.7 58.08 58.1 58.14 58.13 58.21 58.34 58.87 58.5 58.32 58.28 58.27 58.27 58.32 58.11 58.01 58.05 58.04 58.34 58.34 58.31 58.32 58.32 58.33 58.42 58.44 58.44 58.43 58.48 58.46 58.48 58.39 58.34 58.36 58.38 58.41 58.38 58.35 58.39 58.24 58.28 58.31 58.33 58.33 58.31 58.32 58.29 58.27 58.17 58.03 57.93 58.26 58.28 58.21 58.19 58.28 58.28 58.19 58.21 58.19 58.21 58.31 58.27 58.4 58.11 58.4 58.3 58.4 58.47 58.41 58.42 58.5 58.44 58.43 58.39 58.37 58.43 58.36 58.28 58.13 58.15 58.27 58.35 58.33 58.45 58.61 58.71 58.67 58.81 58.76 58.76 58.81 58.64 57.78 55.71 55 54.88 54.76 54.77 54.74 54.65 53.83 52.97 52.59 52.3 52.33 51.89 51.39 50.75 50.69 50.67 51.61 52.62 52.71 52.94 53.07 54.78 55.02 54.87 54.76 54.72 54.73 54.74 54.71 54.71 54.7 54.71 54.59 55 55.39 55.24 54.51 53.74 52.96 53.34 53.36 54.68 56.46 58.52 59.74 59.82 59.79 59.82 59.14 59.18 59.37 59.54 58.67 57.89 56.93 56.6 56.4 56.11 56.18 56.05 55.9 55.84 55.89 55.94 55.94 56.11 55.99 56.01 56.1 57.59 57.66 57.63 57.55 57.66 57.73 57.59 57.9 57.78 57.77 57.79 57.67 57.79 57.96 57.81 57.74 57.66 57.57 57.65 57.77 57.78 57.72 57.79 56.4 55.75 56.41 56.78 57.9 58.74 59.09 59.3 59.33 59.97 59.97 59.97 59.84 59.75 59.86 61.26 61.33 61.5 61.65 61.87 61.98 62.5 63.55 65.45 65.74 66.19 65.65 65.57 65.6 65.39 65.41 65.3 65.25 65.23 65.26 65.05 64.83 64.59 64.43 64.61 64.86 64.86 64.85 64.85 64.85 64.81 64.58 64.64 64.68 63.9 63.61 63.85 63.93 63.79 63.75 63.7 63.62 63.4 63.38 63.58 63.53 63.01 62.56 62.57 62.57 62.57 62.54 62.73 62.82 62.69 62.65 62.79 62.42 62.31 62.24 62.24 62.27 62.36 62.4 62.35 62.25 62.19 62.19 62.31 62.1 62.1 62.12 62.24 62.3 62.41 62.39 62.43 62.29 62.1 62.02 62.01 62.01 61.96 61.88 61.97 62.11 62.11 62.09 62.08 62.08 62.1 62.12 62.08 61.88 -9999 -9999 -9999 -9999 -9999 -9999 -9999 -9999 -9999 -9999 -9999 -9999
-9999 77.39 77.52 77.59 77.43 77.34 77.75 78.46 79.45 80.32 80.96 80.63 78.82 76.47 75.84 76.45 78.97 78.71 78.34 78 77.51 77.22 77.17 77.17 76.44 72.94 70.41 67.35 67.03 66.62 68.49 70.22 71.46 71.15 70.2 69.53 68.78 67.91 67.53 66.6 66.02 65.82 65.49 65.19 64.84 64.33 63.96 62.62 61.55 60.82 60.77 60.74 60.77 60.77 59.69 58.95 58.84 58.87 58.93 59.02 59.07 58.27 58.24 58.37 58.32 58.25 58.15 58.07 57.81 56.59 55.29 54.77 53.34 51.65 50.95 50.98 51.02 51.04 51.04 51 50.99 50.96 50.95 50.92 50.95 51.05 51.07 51.71 52.59 53.29 54.72 56.89 56.85 57.07 57.09 57.33 57.25 57.33 57.26 57.37 57.17 57.04 57.27 57.14 57.2 57.22 57.08 57.15 57.03 57.04 56.96 57.06 56.89 56.4 53.46 50.95 50.87 50.88 50.88 50.88 50.88 50.89 50.88 51.72 52.06 52.01 52.15 52.34 53.26 55.7 57.68 58.11 58.11 58.12 58.15 58.13 58.12 58.26 58.26 58.27 58.26 58.24 58.25 58.32 58.17 58.07 58.03 58.16 58.32 58.35 58.33 58.34 58.35 58.35 58.37 58.43 58.44 58.46 58.49 58.45 58.47 58.44 58.34 58.31 58.34 58.32 58.41 58.36 58.26 58.28 58.28 58.34 58.38 58.32 58.3 58.3 58.3 58.21 58.12 57.99 57.93 58.13 58.21 58.19 58.22 58.29 58.28 58.31 58.16 58.16 58.43 58.3 58.3 58.24 58.39 58.33 58.34 58.4 58.35 58.36 58.42 58.46 58.41 58.47 58.43 58.45 58.44 58.42 58.27 58.28 58.24 58.33 58.43 58.35 58.4 58.43 58.54 58.62 58.71 58.76 58.72 58.74 58.73 58.5 56.44 54.95 54.89 54.86 54.87 54.8 54.79 53.75 52.92 52.71 52.41 52.37 51.86 51.51 50.77 50.72 50.75 51.65 52.54 52.83 53.05 53.34 54.79 55.08 54.94 54.81 54.73 54.71 54.76 54.74 54.76 54.66 54.67 54.55 54.61 54.76 55.48 55.28 54.14 53.83 53.41 54.05 55.83 57.52 59.46 59.79 59.78 59.8 60.01 59.06 59.04 58.95 57.21 56.49 56.44 56.43 56.28 56.06 56.02 56 56 55.88 55.88 55.89 55.87 55.92 56.05 56.06 56.09 56.54 57.63 57.56 57.5 58.09 57.78 57.78 57.6 57.75 57.78 57.74 57.59 57.71 57.81 57.92 57.75 57.63 57.58 57.65 57.68 57.85 57.78 57.83 57.9 57.75 56.73 56.77 56.99 57.92 58.23 58.46 58.97 59.05 60.08 59.9 60.05 59.96 59.86 60.59 61.37 61.43 61.6 61.73 61.94 62.2 62.93 64.93 65.64 65.73 66.12 65.56 65.55 65.42 65.35 65.3 65.17 65.16 65.24 65.55 65.08 64.73 64.57 64.47 64.66 64.77 64.8 64.81 64.81 64.81 64.87 64.78 64.69 64.78 64.07 63.69 63.83 63.78 63.92 63.81 63.7 63.59 63.4 63.39 63.59 63.53 63.34 62.59 62.58 62.57 62.56 62.52 62.73 62.73 62.66 62.59 62.59 62.42 62.34 62.3 62.31 62.55 62.36 62.39 62.36 62.27 62.3 62.39 62.45 62.29 62.22 62.2 62.16 62.41 62.19 62.4 62.37 62.32 61.98 62.06 61.98 61.94 61.97 61.97 61.94 61.87 62.02 62.03 62.13 62.09 62.15 62.11 61.97 61.87 -9999 -9999 -9999 -9999 -9999 -9999 -9999 -9999 -9999 -9999 -9999 -9999
-9999 77.42 77.49 77.52 77.81 78.53 79.45 80.51 81.14 81.14 81.2 80.91 79.58 77.14 75.48 75.26 77.74 78.09 77.77 77.47 76.8 76.6 76.26 75.94 75.56 74.45 72.36 70.02 66.64 66.32 65.89 67.29 68.58 70.13 69.98 69.17 67.33 67.78 66.69 65.8 65.67 65.42 65.12 64.97 64.48 64.23 63.12 61.72 60.73 60.75 60.64 60.69 60.52 59.32 58.99 58.83 58.85 58.91 59 58.94 58.41 58.27 58.48 58.36 58.41 58.25 58.1 57.85 57.03 55.51 54.92 53.81 52.01 50.96 50.86 50.92 50.95 51.03 50.98 51.05 51.07 50.99 50.9 50.94 50.92 50.95 51.78 52.25 53.01 53.58 55.6 57.02 56.83 57.12 57.19 57.64 57.66 57.94 57.27 57.23 57.57 57.11 57.06 57.22 57.27 57.28 57.16 57.07 57.15 57.11 57.02 57.12 57.01 55.95 53.18 50.89 50.84 50.82 50.8 50.82 50.83 50.85 50.86 51.72 52.06 52.07 52.12 52.4 53.23 56.11 57.77 58.04 58.11 58.16 58.27 58.63 58.41 58.21 58.14 58.25 58.22 58.16 58.27 58.04 58.05 58.01 58.09 58.29 58.32 58.36 58.36 58.36 58.37 58.38 58.38 58.41 58.43 58.45 58.47 58.52 58.42 58.37 58.34 58.34 58.38 58.34 58.38 58.26 58.29 58.26 58.3 58.37 58.39 58.41 58.39 58.33 58.32 58.3 58 57.91 58 58.25 58.21 58.26 58.21 58.25 58.39 58.38 58.25 58.27 58.26 58.36 58.44 58.5 58.35 58.37 58.38 58.44 58.5 58.43 58.49 58.42 58.47 58.35 58.41 58.46 58.38 58.49 58.34 58.27 58.32 58.47 58.3 58.37 58.38 58.43 58.49 58.49 58.57 58.62 58.78 58.79 58.77 58.68 57.06 55.15 54.97 54.99 54.97 54.79 54.78 53.75 52.91 52.7 52.4 52.37 51.91 50.8 50.73 50.75 50.74 51.77 52.61 52.67 52.93 53.21 54.74 54.96 54.88 54.83 54.8 54.73 54.72 54.76 54.75 54.67 54.69 54.6 54.64 55.03 54.89 55.18 55.32 54.65 54.33 54.94 56.63 58.56 59.71 59.8 59.88 60.19 59.01 58.97 58.86 56.81 56.06 56.17 55.99 56.01 56.02 55.98 55.89 55.84 55.86 55.85 55.79 55.78 55.75 56.01 55.99 55.95 56.06 57.15 57.51 57.43 57.64 57.99 57.76 57.68 57.84 57.78 57.73 57.57 57.67 57.76 57.94 57.74 57.66 57.61 57.52 57.67 57.52 57.75 58.32 58.21 57.95 57.88 57.96 57.9 57.87 58.12 58.29 58.44 58.61 59.06 59.93 59.93 60.1 60.03 60.15 61.38 61.49 61.59 61.62 61.85 62.01 62.6 63.61 65.39 65.72 66.07 65.65 65.56 65.56 65.39 65.27 65.19 65.18 65.22 65.46 65.24 65.16 64.79 64.6 64.54 64.7 64.75 64.77 64.78 64.79 64.8 64.85 64.78 64.7 64.8 64.1 63.76 63.77 63.81 63.92 63.84 63.75 63.66 63.42 63.39 63.62 63.62 63.26 62.58 62.57 62.55 62.53 62.48 62.68 62.72 62.64 62.54 62.47 62.42 62.37 62.38 62.42 62.74 62.49 62.54 62.38 62.34 62.35 62.33 62.12 62.28 62.1 62.24 62.22 62.67 62.15 62.31 62.32 62.14 61.88 62.23 62.02 61.99 61.94 61.92 61.91 61.93 61.92 61.84 62.12 62.11 62.21 62.11 61.94 61.86 -9999 -9999 -9999 -9999 -9999 -9999 -9999 -9999 -9999 -9999 -9999 -9999
-9999 77.46 77.9 78.76 79.72 80.65 81.07 81.03 81.1 80.79 80.38 79.81 79.62 78.08 75.2 75 76.26 77.39 76.77 76.47 75.98 75.73 75.52 75.07 74.35 73.16 72.23 71.81 69.8 66.03 65.53 65.12 65.74 67.17 68.6 68.54 66.03 67.61 66.29 65.54 65.47 65.23 64.68 64.96 64.08 63.33 62.06 60.72 60.65 60.56 60.61 60.65 59.28 58.91 58.79 58.82 58.91 58.95 58.9 58.32 58.32 58.53 58.44 58.39 58.23 58.17 57.97 57.19 55.87 53.97 54.14 52.65 51.05 50.98 50.97 50.85 50.89 50.91 50.99 50.97 51.07 51.07 50.98 50.9 50.92 51.58 52.33 52.45 52.99 54.13 56.73 56.91 57.1 57.15 57.16 57.16 57.38 57.22 57.29 57.19 57.21 57.21 57.49 57.35 57.26 57.15 57.37 57.15 57.06 57.05 57.13 57.12 57.07 55.41 53.07 50.95 50.94 50.92 50.89 50.87 50.84 50.82 51 51.82 52 52.05 52.2 52.32 53.21 56.08 57.88 58.01 58.12 58.22 58.83 59.26 59 58.4 58.15 58.16 58.35 58.31 58.19 58.03 58.05 58.07 58.13 58.2 58.39 58.37 58.38 58.39 58.39 58.4 58.41 58.41 58.45 58.44 58.4 58.37 58.37 58.37 58.34 58.36 58.38 58.34 58.3 58.41 58.28 58.35 58.35 58.33 58.35 58.37 58.34 58.12 58.11 57.96 57.92 57.93 58.21 58.43 58.32 58.25 58.27 58.26 58.49 58.36 58.32 58.44 58.23 58.42 58.42 58.81 58.4 58.34 58.5 58.57 58.55 58.6 58.44 58.44 58.45 58.43 58.37 58.49 58.4 58.4 58.28 58.23 58.31 58.26 58.3 58.36 58.43 58.44 58.47 58.49 58.56 58.63 58.86 58.85 58.73 58.69 57.72 55.48 55.12 55.03 55.06 54.88 54.81 53.59 52.92 52.62 52.48 52.45 51.65 50.76 50.74 50.74 50.75 51.89 52.54 52.72 52.92 53.17 54.8 54.92 54.84 54.86 54.81 54.75 54.72 54.77 54.75 54.64 54.55 54.63 54.62 54.94 54.89 55.32 54.65 54.5 54.35 56.06 57.75 59.52 59.75 59.87 59.94 59 58.94 58.92 57.14 55.96 55.86 55.91 55.88 55.94 56 55.96 55.87 55.86 55.72 55.67 55.63 55.69 55.93 55.95 55.98 56 55.98 56.62 57.27 57.31 57.52 57.96 57.64 57.81 57.81 57.7 57.66 57.6 57.71 57.91 57.78 57.69 57.58 57.52 57.62 57.7 57.45 58.32 58.38 58.29 58.33 58.13 58.16 58.19 58.29 58.44 58.46 58.61 58.76 59.94 59.83 60.31 60.22 60.14 60.82 61.43 61.57 61.65 61.79 61.91 62.42 63.19 64.27 65.61 66.01 65.65 65.55 65.43 65.32 65.28 65.16 65.22 65.32 65.46 65.35 65.22 65.22 64.88 64.64 64.58 64.7 64.7 64.71 64.75 64.77 64.78 64.87 64.79 64.76 64.81 64.12 63.69 63.82 63.85 63.87 63.77 63.67 63.58 63.45 63.4 63.48 63.5 63.56 62.53 62.52 62.51 62.49 62.51 62.68 62.79 62.65 62.55 62.47 62.41 62.39 62.44 62.41 62.38 62.35 62.32 62.31 62.34 62.41 62.25 62.44 62.18 62.11 62.19 62.36 62.08 62.07 62.24 62.19 61.91 61.85 62.05 62.06 62.02 61.97 61.93 61.92 61.9 61.87 61.86 61.83 61.77 62.02 61.98 61.92 61.89 -9999 -9999 -9999 -9999 -9999 -9999 -9999 -9999 -9999 -9999 -9999 -9999
-9999 78.5 79.79 80.7 80.97 81.01 80.92 80.67 80.35 79.88 79.61 79.03 78.74 78.32 75.49 74.66 74.81 76.56 76.18 75.71 75.26 74.94 74.69 74.15 72.98 72.25 72.02 71.91 71.71 69.9 67.12 64.8 64.43 64.1 65.64 67.08 67.83 67.22 66.35 65.76 65.36 64.84 64.68 64.48 63.53 62.15 60.64 60.55 60.33 60.33 60.4 59.05 58.89 58.79 58.82 58.92 58.92 58.83 58.43 58.18 58.6 58.51 58.44 57.94 58.1 58.09 57.85 56.23 55.47 54.35 52.65 51.84 50.93 50.95 50.97 51 50.86 50.87 50.88 50.95 51.02 51.04 51.07 50.98 51.11 52.13 52.69 52.93 53.7 55.66 57.21 57.03 57.45 57.28 57.3 57.22 57.36 57.34 57.3 57.49 57.47 57.36 57.25 57.35 57.38 57.38 57.38 57.27 57.28 57.2 57.12 57.15 57.16 54.75 52.62 50.88 50.89 50.9 50.89 50.87 50.85 50.83 50.95 51.73 51.95 51.81 51.94 52.09 53.1 56.04 57.96 58.15 58.12 58.22 58.41 58.45 58.27 58.15 58.12 58.15 58.16 58.18 58.11 58.05 58.05 58.17 58.32 58.36 58.41 58.44 58.41 58.41 58.42 58.42 58.43 58.44 58.44 58.48 58.45 58.4 58.35 58.34 58.34 58.39 58.41 58.33 58.25 58.31 58.3 58.3 58.38 58.35 58.32 58.33 58.31 58.17 58.06 58 57.97 58.34 58.29 58.33 58.37 58.29 58.26 58.32 58.24 58.41 58.34 58.23 58.29 58.38 58.45 58.44 58.72 58.59 58.59 58.63 58.46 58.55 58.36 58.42 58.45 58.46 58.35 58.23 58.31 58.21 58.31 58.31 58.22 58.17 58.21 58.3 58.43 58.35 58.41 58.54 58.62 58.66 58.71 58.72 58.69 58.47 58.05 55.97 55.12 55.01 55.04 54.87 54.93 53.48 52.85 52.66 52.42 52.36 51.49 50.75 50.72 50.74 50.76 51.91 52.69 52.67 52.89 53.21 54.95 54.95 54.87 54.96 55.02 54.89 54.95 54.79 54.72 54.67 54.58 54.57 54.65 55.54 55.17 54.72 54.29 54.16 55.16 56.97 59.03 59.66 59.72 59.8 59.46 58.82 58.77 57.55 56.07 55.82 55.86 55.87 55.85 55.91 56.01 55.99 55.9 55.82 55.74 55.76 55.9 55.98 56.08 56.02 56.05 56.11 55.74 55.99 56.95 57.18 57.33 57.73 57.64 57.79 57.71 57.67 57.55 57.64 57.74 57.89 57.72 57.56 57.52 57.6 57.65 57.33 58.17 58.16 58.17 58.23 58.04 58.33 58.24 58.27 58.49 58.7 58.83 58.85 58.89 59.85 59.91 60.46 60.29 60.37 61.29 61.51 61.66 61.76 61.88 62.25 62.95 63.85 64.77 65.79 65.5 65.6 65.47 65.4 65.41 65.38 65.35 65.39 65.47 65.68 65.47 65.28 65.38 64.9 64.67 64.63 64.72 64.77 64.79 64.82 64.84 64.85 64.99 64.81 64.81 64.85 64.34 63.67 63.82 63.88 63.91 63.81 63.72 63.61 63.47 63.39 63.57 63.77 63.9 62.45 62.69 62.65 62.59 62.52 62.69 62.91 62.75 62.66 62.75 62.54 62.52 62.5 62.52 62.46 62.41 62.35 62.34 62.39 62.33 62.21 62.3 62.2 62.26 62.2 62.67 62 62.03 61.99 61.93 61.83 61.96 62.14 62.11 62.06 62.01 61.97 61.95 62.07 61.89 61.92 61.91 61.79 61.91 61.94 61.9 61.63 -9999 -9999 -9999 -9999 -9999 -9999 -9999 -9999 -9999 -9999 -9999 -9999
-9999 80.67 80.86 80.98 81.08 80.71 80.32 79.95 79.48 79.03 78.72 78.26 77.83 77.54 76.38 74.35 74.17 75.64 75.4 75.01 74.58 74.01 73.66 72.8 72.2 72.05 71.89 71.9 72.38 71.89 69.8 67.52 63.98 63.73 63.3 64.16 65.38 66.31 66.02 65.48 64.73 64.32 64.4 63.59 62.38 60.57 60.44 60.24 60.09 60.13 58.85 58.88 58.78 58.8 58.89 58.89 58.79 58.77 58.64 58.63 58.53 58.51 58.35 58.17 58.07 57.58 56.9 55.75 54.33 53.57 52.35 50.99 50.92 50.95 50.95 50.97 50.99 50.87 50.92 50.87 50.91 51.04 50.96 51.06 51.86 52.61 52.99 53.24 54.33 56.92 57.28 57.12 57.26 57.17 57.31 57.84 57.4 57.46 57.36 57.42 57.36 57.52 57.35 57.28 57.27 57.55 57.41 57.42 57.35 57.41 57.35 57.39 57.12 54.35 52.03 50.79 50.81 50.83 50.85 50.87 50.86 50.84 50.96 52.15 51.84 51.65 51.84 52.11 53.29 55.87 58.05 58.07 58.1 58.09 58.25 58.05 58 58.06 58.16 58.11 58.05 58.12 58.04 58.05 58.14 58.25 58.34 58.49 58.53 58.46 58.45 58.48 58.48 58.43 58.44 58.46 58.47 58.43 58.42 58.38 58.36 58.34 58.44 58.43 58.38 58.28 58.29 58.29 58.37 58.39 58.47 58.4 58.35 58.33 58.17 58.11 57.99 57.91 58.48 58.52 58.44 58.44 58.39 58.34 58.37 58.24 58.23 58.23 58.3 58.25 58.35 58.38 58.42 58.54 58.72 58.42 58.6 58.41 58.37 58.44 58.38 58.54 58.4 58.59 58.65 58.32 58.42 58.26 58.31 58.41 58.26 58.14 58.08 58.17 58.26 58.28 58.29 58.39 58.56 58.57 58.72 58.71 58.73 58.56 58.43 56.71 55.23 55.06 55.04 55.02 54.99 53.39 52.64 52.63 52.43 52.48 51.44 50.8 50.7 50.69 50.73 52.09 52.6 52.75 52.89 53.18 55.06 54.91 54.97 55.01 55.07 54.99 55.02 54.92 54.72 54.76 54.66 54.62 54.68 54.95 54.77 54.79 54.77 54.51 56.21 58.11 59.54 59.69 59.74 59.67 58.95 58.66 57.65 56.04 55.95 55.88 55.82 55.8 56.02 56.11 55.89 55.9 55.86 55.81 55.8 56.02 56.01 56.08 55.98 55.98 56.1 55.87 55.9 55.89 56.96 57.48 57.55 57.74 57.88 57.74 57.67 57.65 57.54 57.68 57.86 57.75 57.68 57.58 57.48 57.65 57.34 57.57 58.31 58.15 58.05 58.04 58.11 58.13 58.19 57.77 58.42 58.84 59.12 59.41 59.9 59.83 60.56 60.44 60.41 60.98 61.38 61.56 61.7 61.97 62.2 62.5 63.36 64.47 65.84 66.04 65.77 65.53 65.39 65.51 65.55 65.62 65.44 65.82 65.74 65.61 65.63 65.3 65.23 64.93 64.69 64.7 64.76 64.77 64.82 64.87 64.92 64.95 64.96 64.82 64.87 64.85 64.59 63.67 63.85 63.98 64.03 63.94 63.86 63.76 63.55 63.4 63.6 63.7 63.81 62.48 62.34 62.76 62.65 62.64 62.75 62.79 62.71 62.68 62.62 62.62 62.61 62.59 62.64 62.65 62.64 62.55 62.43 62.41 62.23 62.39 62.16 62.14 62.22 62.35 62.5 62.03 61.98 61.95 61.9 61.77 61.95 62.17 62.26 62.1 62.06 62 61.96 61.94 61.93 62.71 62.51 62.13 62.04 61.91 61.96 61.91 -9999 -9999 -9999 -9999 -9999 -9999 -9999 -9999 -9999 -9999 -9999 -9999
-9999 80.97 81.1 81.02 80.57 80.04 79.57 79.12 78.7 78.35 77.76 76.83 77.17 76.74 76.44 74.15 73.9 74.52 74.27 74.18 73.9 73.21 72.73 72.16 71.95 71.94 71.85 72.17 73 73.14 71.73 69.95 67.72 63.35 63.02 62.64 63.18 64.04 64.71 64.62 64.08 63.94 63.76 62.24 60.57 60.26 60.14 60 60.08 58.93 58.9 58.74 58.8 58.81 58.86 58.8 58.62 58.79 58.63 58.53 58.39 58.38 58.25 57.98 57.8 57.55 56.15 55.07 53.33 52.53 50.96 50.98 50.99 50.92 50.92 50.94 50.96 50.98 50.89 50.95 50.87 50.86 51.21 52.06 52.45 53.01 53.18 54.05 55.83 57.23 57.05 57.06 57.18 57.53 57.9 57.42 57.46 57.53 57.39 57.41 57.36 57.42 57.49 57.3 57.45 57.53 57.48 57.49 57.43 57.56 57.53 57.47 56.98 53.7 51.57 50.81 50.81 50.81 50.81 50.83 50.87 50.91 50.9 52.03 51.69 51.67 51.75 52.02 53.41 56.97 58.11 58.09 58.16 58.16 58.21 58.11 58.1 58.13 58.21 58.07 58.05 57.99 58.08 58.1 58.17 58.37 58.48 58.5 58.51 58.51 58.46 58.49 58.46 58.49 58.49 58.49 58.44 58.48 58.41 58.36 58.38 58.5 58.48 58.43 58.34 58.25 58.29 58.27 58.31 58.51 58.47 58.43 58.38 58.22 58.14 58.04 57.95 58.08 58.56 58.57 58.54 58.4 58.37 58.36 58.34 58.31 58.29 58.4 58.34 58.33 58.4 58.4 58.51 58.38 58.38 58.43 58.36 58.37 58.53 58.38 58.47 58.45 58.43 58.47 58.38 58.34 58.31 58.37 58.39 58.31 58.25 58.13 58.15 58.05 58.12 58.29 58.31 58.38 58.52 58.63 58.58 58.76 58.72 58.66 58.51 57.33 55.3 55.13 55.05 54.99 55.01 53.09 52.65 52.55 52.4 52.45 51.59 50.75 50.73 50.74 50.73 52.21 52.64 52.62 52.85 53.17 55.21 55.14 55.08 55.13 55 55 55 54.97 54.82 54.73 54.82 54.77 54.77 54.55 54.75 54.63 54.65 55.62 57.34 59.32 59.64 59.66 59.79 58.82 58.65 58.04 56.01 56.11 55.91 55.9 55.92 55.94 56.01 55.9 55.88 55.88 55.74 55.83 55.85 55.99 56.1 56.01 56.03 56.04 55.92 55.81 56.09 55.98 56.22 56.96 57.66 57.77 57.68 57.68 57.61 57.55 57.62 57.79 57.86 57.66 57.59 57.51 57.57 57.56 57.14 58.34 58.17 58.09 58.03 58.06 58.09 58.1 58.27 58.21 58.07 57.97 58.99 59.46 59.64 59.82 60.65 60.58 60.71 61.08 61.49 61.62 61.9 62.51 62.67 63.25 64.29 65.04 65.89 65.91 65.57 65.44 65.43 65.67 65.61 65.76 65.78 65.89 65.9 65.86 65.53 65.36 65.11 64.86 64.73 64.75 64.78 64.84 64.9 64.96 64.99 65.02 64.98 64.85 65.01 64.89 64.63 64.12 64.46 64.32 64.2 63.99 63.86 63.77 63.68 63.44 63.61 63.76 63.91 63.21 62.62 62.92 62.93 62.93 62.9 62.87 62.76 62.75 62.76 62.72 62.65 62.67 62.62 62.71 62.74 62.68 62.49 62.44 62.26 62.43 62.14 62.22 62.2 62.49 62.75 62.66 62.27 61.89 61.77 61.75 61.89 62.14 62.32 62.31 62.2 62.03 62.01 61.98 61.97 62.9 62.57 62.16 61.92 61.83 61.9 61.97 -9999 -9999 -9999 -9999 -9999 -9999 -9999 -9999 -9999 -9999 -9999 -9999
-9999 80.76 80.34 80.04 79.71 79.24 78.78 78.39 77.92 77.54 77.29 76.8 76.6 76.11 75.74 74.58 73.58 73.49 74.04 73.43 73.02 72.39 72.23 72.02 71.79 71.41 70.79 71.39 72.69 73.18 73.21 72.13 70.15 67.48 63.98 62.32 62.02 61.93 62.84 63.37 63.67 63.64 62.46 60.64 60.2 60.11 59.96 60 58.94 58.89 58.76 58.79 58.88 58.86 58.76 58.81 58.78 58.73 58.67 58.53 58.28 58.24 58.2 58.1 57.75 57.15 55.6 54.07 53.14 51 51 50.95 50.97 50.96 50.93 50.91 50.94 50.95 50.98 50.93 50.95 50.94 52.57 52.27 53.3 53.59 54.75 56.24 57.3 57.05 57.21 57.24 57.34 57.39 57.45 57.47 57.66 57.55 57.5 57.51 57.53 57.53 57.47 57.6 57.82 57.61 57.51 57.58 57.6 57.87 57.67 57.77 56.44 53.43 50.96 50.91 50.84 50.84 50.84 50.84 50.85 50.84 50.86 51.75 51.87 51.64 51.82 52.71 54.17 57.77 58.24 58.13 58.14 58.15 58.19 58.19 58.2 58.18 58.16 58.16 58.03 58.03 58.24 58.13 58.42 58.44 58.47 58.5 58.48 58.47 58.48 58.48 58.46 58.48 58.46 58.49 58.43 58.39 58.39 58.36 58.41 58.41 58.47 58.4 58.31 58.24 58.26 58.26 58.26 58.51 58.46 58.42 58.33 58.1 58.09 58.01 58.04 58.58 58.62 58.67 58.5 58.52 58.68 58.73 58.43 58.45 58.46 58.4 58.42 58.41 58.43 58.47 58.4 58.3 58.16 58.37 58.3 58.32 58.27 58.4 58.43 58.42 58.45 58.41 58.44 58.39 58.23 58.37 58.28 58.26 58.24 58.13 58.07 58.06 58.11 58.3 58.31 58.43 58.6 58.46 58.64 58.75 58.67 58.65 58.54 57.75 55.58 55.11 54.99 54.95 55.05 52.99 52.74 52.69 52.49 52.52 51.67 50.76 50.72 50.75 50.84 52.5 52.67 52.9 53.04 53.28 55.09 55.06 55.52 55.1 54.97 54.97 54.96 54.87 54.92 54.75 54.76 54.65 54.76 54.66 54.45 54.57 54.87 56.56 58.51 59.51 59.7 59.74 59.03 58.63 58.4 56.15 55.94 56.03 55.8 55.89 55.87 55.87 55.94 56.02 55.98 55.96 55.81 55.85 56.14 55.93 56.14 56.08 56.12 56 55.99 55.82 55.97 56.13 55.93 55.92 56.36 57.47 57.64 57.62 57.48 57.54 57.62 57.81 57.67 57.58 57.55 57.61 57.61 57.22 57.16 58.24 58.3 58.4 58.02 58.04 58.09 58.17 58.3 58.23 58.33 58.37 59.09 59.52 59.76 60.16 60.62 60.61 60.91 61.35 61.61 61.86 62.11 62.65 63.1 63.78 64.75 65.63 65.74 65.61 65.51 65.53 65.47 65.56 65.61 65.61 65.78 65.77 65.79 65.81 65.53 65.35 65.21 64.92 64.8 64.78 64.83 64.95 65.02 65.06 65.1 65.14 65 64.87 64.88 64.9 64.87 64.64 64.66 64.72 64.33 64.07 63.91 63.78 63.58 63.48 63.53 63.71 63.8 63.28 63.15 63.2 63.28 63.17 63.13 62.93 62.86 62.89 62.95 62.98 62.7 62.64 62.59 62.66 62.69 62.72 62.6 62.5 62.47 62.38 62.16 62.26 62.26 62.86 62.87 62.7 62.3 61.86 61.66 61.85 61.99 62.17 62.3 62.27 62.41 62.27 62.24 61.95 62.38 62.75 62.48 62.06 61.87 61.88 61.91 61.98 -9999 -9999 -9999 -9999 -9999 -9999 -9999 -9999 -9999 -9999 -9999 -9999
-9999 80.03 79.65 79.29 78.84 78.43 78.02 77.63 77.33 77.03 76.61 76.24 75.75 75.4 74.99 74.48 73.2 73.1 73.32 72.78 72.33 72.19 72.03 71.64 70.91 70.51 70.13 69.68 70 71.58 72.97 73.15 71.64 69.36 66.77 64.39 61.64 61.37 61.03 61.55 62.57 62.44 60.74 60.08 59.88 59.88 59.99 58.92 58.89 58.79 58.79 58.88 58.93 58.78 58.89 58.89 58.87 58.84 58.74 58.53 58.23 58.23 58.22 58.07 57.46 55.92 54.19 53.22 51.42 51.03 50.97 51.03 50.96 50.96 50.94 50.94 50.9 50.91 50.95 50.97 50.98 52.27 52.1 53.07 53.9 55.2 57.16 57.27 57.02 57.41 57.64 57.58 57.4 57.51 57.52 57.56 57.59 57.76 58.03 57.6 57.58 57.62 57.76 57.94 57.68 57.64 57.58 57.62 57.68 57.79 57.74 57.71 56.25 53.34 51.04 50.85 50.9 50.9 50.89 50.89 50.88 50.88 50.9 51.7 51.65 51.75 52.02 53.22 55.37 57.96 58.23 58.17 58.14 58.19 58.24 58.23 58.21 58.27 58.21 58.15 58.03 58.05 58.1 58.25 58.41 58.43 58.46 58.47 58.46 58.45 58.47 58.45 58.45 58.45 58.49 58.42 58.4 58.36 58.38 58.4 58.37 58.48 58.51 58.39 58.2 58.3 58.31 58.23 58.22 58.5 58.45 58.33 58.26 58.22 58.01 57.99 58.72 58.83 59.02 58.46 58.39 58.52 58.51 58.5 58.53 58.5 58.65 58.5 58.48 58.42 58.47 58.4 58.34 58.19 58.19 58.3 58.27 58.31 58.35 58.36 58.42 58.37 58.4 58.28 58.36 58.27 58.3 58.41 58.32 58.4 58.31 58.16 58.13 58.16 58.18 58.21 58.35 58.38 58.58 58.46 58.61 58.75 58.67 58.71 58.42 58.22 55.81 55.2 55.04 55 54.89 52.89 52.72 52.62 52.5 52.41 51.58 50.73 50.72 50.76 50.89 52.37 52.57 52.92 53.15 53.36 55.13 55.09 55.21 55.08 54.9 54.92 55.02 54.88 54.83 54.71 54.75 54.88 54.81 54.78 54.85 54.72 56.12 57.79 59.45 59.67 59.63 59.25 58.62 58.23 56.56 56.03 55.91 55.8 55.92 55.99 55.95 55.95 55.94 56.07 55.91 55.91 56.03 55.8 56.02 56.14 56.06 56.07 56.1 55.79 55.95 55.86 55.8 55.97 55.98 55.85 55.93 57.68 57.64 57.6 57.52 57.58 57.8 57.79 57.62 57.53 57.46 57.59 56.89 57.01 57.33 58.15 58.4 57.98 58.05 58.02 58.1 58.32 58.21 58.33 58.69 58.79 58.83 59.39 59.68 60.54 60.72 60.84 60.99 61.51 61.89 62.11 62.5 62.91 63.57 64.48 65.25 65.47 65.51 65.5 65.47 65.56 65.47 65.58 65.62 65.61 65.74 65.72 65.8 65.92 65.51 65.38 65.31 64.99 64.83 64.84 64.93 65.01 65.09 65.18 65.26 65.27 65.17 64.9 64.98 65.02 65.1 65 64.95 64.82 64.48 64.18 64 63.84 63.68 63.48 63.58 63.7 63.84 63.32 63.29 63.38 63.35 63.22 63.15 62.95 62.91 62.95 62.98 62.88 62.76 62.67 62.57 62.6 62.64 62.76 62.7 62.77 62.51 62.3 62.15 62.22 62.44 62.62 62.66 62.54 61.87 61.74 61.59 62.13 62.1 62.19 62.23 62.25 62.37 62.23 62.19 62.19 62.11 61.97 62.2 61.93 61.88 61.92 61.93 62 -9999 -9999 -9999 -9999 -9999 -9999 -9999 -9999 -9999 -9999 -9999 -9999
-9999 79.29 78.89 78.52 78.11 77.73 77.39 77.14 75.94 75.67 75.95 75.49 75.15 74.6 74.25 73.66 73.03 72.71 72.64 72.49 72.33 72.01 71.67 71.11 70.16 69.8 69.35 69.02 68.71 69.17 71.29 71.65 69.99 69.06 68.19 65.76 64.1 61.01 60.79 60.44 60.61 60.49 59.9 59.83 59.79 59.92 58.95 58.91 58.78 58.78 58.84 58.9 58.88 58.99 58.84 58.9 58.87 58.83 58.74 58.58 58.3 58.37 58.26 58.14 56.88 55.42 52.86 51.24 51.07 51.09 51.03 50.97 50.99 50.97 50.95 50.93 50.93 50.89 50.87 50.93 51.63 52.2 52.5 53.63 55.88 56.83 57.02 56.95 57.51 57.71 57.76 57.68 57.66 57.58 57.6 57.67 57.74 57.73 57.85 57.95 57.74 57.84 57.9 57.86 57.79 57.65 57.64 57.64 57.72 57.77 57.78 57.64 55.11 53 50.86 50.96 50.89 50.9 50.9 50.9 50.91 50.91 50.97 51.81 51.64 51.76 52.24 53.78 57.29 58.01 58.21 58.21 58.22 58.23 58.26 58.28 58.27 58.21 58.2 58.08 58.05 58.12 58.12 58.38 58.4 58.43 58.45 58.45 58.44 58.42 58.41 58.49 58.42 58.42 58.44 58.4 58.36 58.38 58.35 58.36 58.54 58.45 58.43 58.29 58.31 58.36 58.27 58.2 58.19 58.22 58.42 58.21 58.12 58.21 58.05 58.03 59.03 58.9 58.97 58.43 58.36 58.51 58.56 58.54 58.59 58.63 58.56 58.51 58.48 58.55 58.5 58.42 58.25 58.14 58.21 58.28 58.26 58.29 58.32 58.37 58.42 58.34 58.35 58.31 58.28 58.16 58.36 58.35 58.35 58.28 58.28 58.3 58.29 58.2 58.2 58.12 58.29 58.35 58.43 58.41 58.64 58.89 58.66 58.59 58.39 58.4 56.01 55.22 55.32 55.03 54.55 52.62 52.27 52.51 52.49 52.05 51.43 50.8 50.76 50.74 50.99 52.43 52.69 52.84 53.03 53.31 55.2 55.38 55.16 55.09 55.05 55.05 54.85 54.94 54.8 54.86 54.86 54.94 54.88 54.78 54.96 55.32 56.93 58.84 59.55 59.77 59.51 58.6 58.42 56.71 56.13 55.92 55.96 55.86 55.88 55.81 55.97 56.01 55.99 55.94 55.87 55.99 56.27 55.97 56.06 56.12 56.12 56.13 55.92 55.94 55.94 55.93 55.99 55.9 55.94 55.99 56.49 57.55 57.57 57.43 57.57 57.65 57.82 57.64 57.54 57.48 57.55 57.44 56.85 56.83 57.33 58.14 57.98 57.97 58.06 58.01 58.22 58.31 58.27 58.69 58.78 58.81 59.04 59.4 60.7 60.76 60.74 60.96 61.32 61.8 62.02 62.25 62.59 63 63.86 64.82 65.22 65.52 65.58 65.56 65.48 65.52 65.52 65.53 65.54 65.55 65.59 65.93 65.95 66.03 65.69 65.58 65.53 65.04 64.86 64.88 64.99 65.07 65.11 65.17 65.23 65.28 65 64.94 65.04 65.09 65.23 65.27 65.26 64.92 64.58 64.24 64.09 63.92 63.81 63.69 63.6 63.68 63.86 63.46 63.42 63.44 63.43 63.26 63.13 62.99 62.96 63 62.94 62.77 62.88 62.68 62.59 62.6 62.72 62.78 62.69 62.54 62.45 62.22 62.25 62.24 62.69 62.33 62.34 62.31 61.9 61.74 61.75 62.06 62.09 62.16 62.22 62.31 62.27 62.21 62.17 62.15 62.1 62.01 61.93 61.89 61.87 61.94 61.96 62.14 -9999 -9999 -9999 -9999 -9999 -9999 -9999 -9999 -9999 -9999 -9999 -9999
-9999 78.64 78.2 77.76 77.48 77.1 76.75 76.37 75.14 74.52 75.34 74.69 74.34 73.83 73.41 72.97 72.54 72.35 72.36 72.19 72.06 71.68 70.78 70.3 69.41 69.07 68.67 68.27 67.93 67.53 68.26 69.14 67.64 66.97 67.93 67.66 66.17 63.47 60.71 60.26 59.96 59.78 59.64 59.54 59.78 58.99 58.9 58.84 58.81 58.79 58.95 58.83 58.9 58.95 58.81 58.91 58.8 58.8 58.64 58.55 58.4 58.28 58.2 57.88 55.65 54.39 51.5 51 51.02 51.03 51.05 51.02 50.96 50.95 50.96 50.94 50.91 50.91 50.88 51.36 52.28 52.61 53.41 55.09 56.67 57.09 56.93 57.37 57.86 57.68 57.83 57.83 57.64 57.69 57.71 57.54 57.63 58.08 58 58.09 58.08 58.09 57.98 57.92 57.81 57.68 57.67 57.7 57.81 57.88 57.83 57.59 54.69 52.59 50.94 50.96 50.96 50.89 50.89 50.89 50.9 50.9 50.91 51.76 51.69 51.71 52.28 54 57.6 58.22 58.62 58.53 58.47 58.25 58.22 58.21 58.18 58.24 58.15 58.11 58.1 58.1 58.16 58.35 58.39 58.42 58.44 58.43 58.41 58.4 58.39 58.39 58.46 58.4 58.33 58.36 58.37 58.35 58.33 58.32 58.5 58.52 58.35 58.33 58.35 58.34 58.24 58.18 58.17 58.16 58.2 58.12 58.2 58.01 58 58.06 58.87 59.03 59.06 58.51 58.51 58.48 58.55 58.49 58.57 58.65 58.55 58.56 58.5 58.51 58.51 58.41 58.35 58.24 58.35 58.28 58.22 58.26 58.33 58.37 58.34 58.3 58.36 58.26 58.27 58.2 58.21 58.31 58.36 58.26 58.52 58.3 58.2 58.21 58.06 58.17 58.25 58.35 58.66 58.57 58.73 58.7 58.63 58.59 58.45 58.26 56.22 55.19 55.14 55.14 54.07 52.63 52.56 52.55 52.54 52.2 51.12 50.74 50.74 50.78 50.92 52.44 52.65 52.9 53.13 53.3 55.27 55.12 55.19 55.1 55.04 55.1 54.96 54.93 54.81 54.85 54.98 54.47 54.66 54.86 54.75 56.3 57.97 59.31 59.69 59.63 58.49 58.5 57.24 56.11 55.92 55.92 55.92 55.95 55.95 55.98 56.01 55.92 56.02 55.9 55.79 55.85 55.95 55.96 56.2 56.1 56.07 56.05 55.93 55.88 55.94 56 56.02 55.81 55.88 55.83 56.66 57.59 57.59 57.52 57.56 57.76 57.73 57.56 57.49 57.58 57.62 56.76 56.8 56.9 58.1 58.17 58.17 58.16 57.99 58.06 58.25 58.27 58.84 59.51 59.09 58.85 59.29 59.47 60.87 60.8 60.87 61 61.55 61.77 62.09 62.28 62.63 63.15 64.05 64.87 65.39 65.58 65.73 65.7 65.65 65.42 65.69 65.63 65.67 65.53 65.56 65.78 65.81 65.75 65.55 65.55 65.55 65.07 64.95 64.92 65.02 65.12 65.13 65.17 65.22 65.27 65.01 65.03 65.07 65.26 65.44 65.59 65.36 65.02 64.68 64.29 64.15 64.01 63.92 63.82 63.72 64.05 64.25 63.68 63.53 63.48 63.35 63.32 63.23 63.06 63.43 64.06 63.19 63.19 63.3 63.21 63.19 63.29 63.3 63.27 63.21 63.41 62.38 62.13 62.29 62.39 62.47 62.39 62.16 62.07 61.92 61.8 61.93 62.03 62.06 62.1 62.2 62.2 62.24 62.21 62.13 62.13 62.07 62.02 61.94 61.88 61.86 61.86 61.95 62.12 -9999 -9999 -9999 -9999 -9999 -9999 -9999 -9999 -9999 -9999 -9999 -9999
-9999 78.46 77.99 77.34 76.79 76.27 75.91 75.64 75.31 74.92 74.45 74.05 73.69 73.16 72.72 72.19 72.13 72.07 72.06 71.92 71.05 70.59 69.29 68.98 68.66 68.24 67.82 67.51 67.17 66.76 66.33 66.63 66.3 66.05 66.56 66.9 66 64.64 62.93 60.58 59.69 59.54 59.31 59.15 59.01 58.83 58.87 58.79 58.75 58.95 58.83 58.88 58.99 58.78 58.85 58.95 58.89 58.86 58.77 58.62 58.43 58.34 57.94 57.08 54.7 52.08 50.92 50.96 50.97 50.98 51 51.01 51.03 50.96 50.91 50.92 50.91 50.89 51.24 52.46 52.38 53.04 54.66 56.37 56.95 57 57.06 57.58 57.86 57.78 57.81 57.65 57.7 57.91 58.15 58.15 57.92 57.98 58.17 58.14 58.08 58.01 58.07 57.97 57.83 57.83 57.8 57.81 57.89 57.9 57.91 57.52 54.26 52.05 50.9 50.91 50.92 50.93 50.89 50.88 50.89 50.89 50.89 51.63 51.75 51.89 52.22 53.39 57.27 58.25 58.36 58.44 58.29 58.3 58.23 58.28 58.28 58.14 58.17 58.08 58.12 58.11 58.22 58.31 58.37 58.41 58.42 58.4 58.39 58.38 58.36 58.35 58.44 58.32 58.34 58.32 58.33 58.31 58.29 58.34 58.43 58.35 58.34 58.37 58.35 58.26 58.19 58.17 58.17 58.19 58.25 58.37 58.1 58.07 58.7 59.02 58.89 58.96 58.52 58.41 58.49 58.48 58.45 58.44 58.5 58.56 58.51 58.41 58.3 58.37 58.42 58.48 58.45 58.41 58.38 58.27 58.25 58.3 58.31 58.31 58.28 58.3 58.25 58.22 58.18 58.15 58.18 58.31 58.32 58.38 58.45 58.21 58.21 58.04 58.26 58.13 58.14 58.33 58.34 58.53 58.56 58.55 58.59 58.59 58.49 58.34 55.85 55.24 55.26 55.06 53.64 52.5 52.46 52.46 52.59 51.84 50.78 50.75 50.64 50.75 51.53 52.5 52.59 52.78 53.11 53.64 55.18 55.08 55.14 55.11 55.03 55.05 54.98 54.9 54.95 55.05 55.3 53.26 53.89 54.63 55.75 57.44 59.28 59.73 59.75 58.89 58.41 58.04 55.84 56.07 55.96 55.95 55.95 55.85 55.93 56.14 55.97 55.93 56.01 55.91 55.96 55.95 55.89 56.14 56.09 56.08 56.22 55.8 55.74 55.88 56.01 56.01 55.78 55.85 55.8 55.87 57.54 57.52 57.46 57.54 57.6 57.74 57.59 57.49 57.41 57.59 56.81 56.49 56.66 57.36 58.15 58.06 58.2 58.18 58.17 58.2 58.22 58.35 59.47 60.27 59.54 59.66 59.53 60.12 60.88 60.84 60.92 61.15 61.43 61.68 62.04 62.34 62.6 63.35 63.76 64.11 63.83 64.18 65.41 65.82 65.95 65.4 65.36 65.54 65.57 65.54 65.6 65.76 65.79 65.89 65.51 65.52 65.52 65.12 64.96 64.95 65.09 65.13 65.14 65.14 65.15 65.29 65.03 65.17 65.12 65.33 65.41 65.98 65.45 65.12 64.79 64.45 64.27 63.9 63.58 63.73 63.67 63.61 63.7 63.58 63.26 63.23 63.23 63.23 63.07 62.96 63.15 63.11 63.13 63.19 63.29 63.24 63.26 63.22 63.24 63.22 63.19 63.26 62.24 62.25 62.28 62.53 62.15 62.18 62.12 62.14 61.72 61.81 62.02 62.02 62.01 62.07 62.13 62.15 62.16 62.12 62.09 62.09 62.05 61.99 61.96 61.85 61.86 61.89 62.07 62.13 -9999 -9999 -9999 -9999 -9999 -9999 -9999 -9999 -9999 -9999 -9999 -9999
-9999 78.37 77.99 77.57 76.91 76.46 75.76 75.15 74.71 74.12 73.66 73.33 72.93 72.52 72.05 71.73 71.61 71.88 71.11 70.8 70.17 69.71 68.77 68.22 67.94 67.53 66.88 66.67 66.47 66.05 65.64 64.71 65.27 65.05 64.75 64.76 64.27 63.4 62.2 60.54 59.47 59.37 59.22 59.02 58.83 58.87 58.83 58.76 58.97 58.9 58.94 59.11 58.99 58.91 58.87 58.99 58.98 58.85 58.9 58.62 58.48 58.08 55.99 53.91 52.24 51 50.96 50.92 50.95 50.96 50.95 50.96 50.98 50.99 50.97 50.87 50.89 51.06 52.42 52.38 53.12 54.32 56.11 56.88 57.14 57.09 57.31 57.62 57.86 57.95 57.82 57.72 57.86 58.13 58.26 58.34 58.46 58.27 58.18 58.27 58.38 58.19 58.28 58.34 58.38 58.29 58.18 57.99 57.87 58.04 58.04 57 53.74 51.7 50.86 50.86 50.87 50.88 50.89 50.89 50.88 50.87 50.82 51.55 51.77 52.37 52.71 54.16 57.7 58.27 58.37 58.37 58.35 58.29 58.28 58.32 58.17 58.16 58.14 58.1 58.1 58.18 58.25 58.3 58.36 58.4 58.4 58.38 58.37 58.35 58.34 58.33 58.31 58.28 58.31 58.32 58.29 58.24 58.18 58.25 58.26 58.21 58.28 58.34 58.31 58.2 58.17 58.16 58.23 58.34 58.32 58.19 58.08 58.18 58.95 58.93 59.01 59 58.45 58.41 58.39 58.41 58.49 58.5 58.51 58.48 58.59 58.36 58.31 58.33 58.27 58.34 58.3 58.4 58.39 58.34 58.32 58.37 58.3 58.29 58.25 58.21 58.18 58.17 58.13 58.2 58.22 58.28 58.24 58.29 58.31 58.23 58.21 58.14 58.01 58.01 58.19 58.88 58.39 58.53 58.48 58.51 58.73 58.71 58.54 58.34 56.12 55.23 55.18 54.98 53.26 52.57 52.36 52.44 52.62 51.46 50.75 50.71 50.73 50.8 51.74 52.6 52.82 52.82 53.17 54.04 55.19 55.13 54.9 55 54.94 54.98 55.1 55.01 54.97 55.28 54.49 53.31 53.99 55.21 56.69 58.8 59.54 59.74 59.41 58.47 58.22 56.3 55.99 55.99 55.91 55.97 55.97 55.88 56.07 56.07 56.07 56.16 56.05 56.23 55.96 56.15 56.01 56.19 56.14 56.25 55.86 55.78 55.91 55.91 55.93 55.95 55.93 55.79 55.83 56.44 57.57 57.57 57.49 57.55 57.76 57.63 57.51 57.47 57.5 57.31 55.44 56.53 56.66 56.95 58.12 58.22 58.18 58.25 58.15 58.18 58.33 58.19 59.37 60 59.56 59.64 59.61 60.95 60.85 60.81 60.94 61.22 61.46 61.72 61.97 62.2 62.71 63.1 63.27 63.37 63.69 64.21 64.55 64.44 64.55 65.66 65.81 65.77 65.4 65.45 65.5 65.61 65.61 65.68 65.54 65.82 65.43 65.13 65.02 65.03 65.16 65.21 65.21 65.22 65.28 65.26 65 65.44 65.14 65.72 65.62 65.62 64.88 64.77 64.55 64.39 63.97 63.67 63.61 63.71 63.73 63.65 63.59 63.44 63.22 63.23 63.24 63.35 62.78 63.31 63.18 63.12 63.14 63.23 63.31 63.31 63.31 63.25 63.24 63.18 63.18 62.66 62.17 62.33 62.31 62.84 61.39 61.37 61.89 62.05 61.8 62.05 62.44 62.47 62.05 62.09 62.11 62.15 62.07 62.03 62.01 61.99 61.98 62.01 61.87 61.89 61.84 61.94 62.11 62.22 -9999 -9999 -9999 -9999 -9999 -9999 -9999 -9999 -9999 -9999 -9999 -9999
-9999 78.1 77.54 77 76.42 76.07 75.69 75.3 74.78 74.29 73.71 73.1 72.53 71.96 71.52 71.66 71.58 71.72 70.68 70.04 69.67 69.21 68.22 67.41 67.04 66.76 66.38 65.93 65.53 65.06 64.78 64.59 64.2 63.91 63.58 63.33 62.95 62.33 61.16 59.7 59.35 59.16 59.05 58.85 58.88 58.81 58.81 58.93 58.97 58.99 59.12 59.01 59.01 58.97 58.85 58.91 58.82 58.81 58.66 58.49 57.94 56.35 53.87 52.38 51.02 50.99 50.98 50.94 50.92 50.93 50.97 50.95 50.93 50.94 50.96 50.93 50.99 52.19 52.48 53.03 54.03 55.36 56.82 57.16 57.14 57.29 57.42 57.73 57.85 57.84 57.76 57.75 58.01 58.41 58.73 58.76 58.49 58.35 58.27 58.35 58.38 58.41 58.52 58.56 58.56 58.43 58.38 58.01 57.99 58.05 58.22 56.29 53.54 51.23 50.85 50.84 50.84 50.85 50.86 50.86 50.87 50.86 50.84 51.66 51.89 52.32 53.51 55 57.95 58.4 58.35 58.34 58.44 58.29 58.27 58.21 58.18 58.14 58.13 58.09 58.09 58.51 59.52 60.17 58.24 58.36 58.29 58.29 58.29 58.31 58.34 58.37 58.3 58.27 58.3 58.29 58.23 58.2 58.13 58.11 58.1 58.15 58.22 58.3 58.24 58.17 58.12 58.17 58.23 58.3 58.24 58.09 58.1 58.88 58.92 58.9 58.92 58.85 58.49 58.5 58.43 58.41 58.49 58.52 58.46 58.46 58.43 58.36 58.31 58.29 58.2 58.19 58.19 58.22 58.33 58.29 58.24 58.23 58.32 58.35 58.32 58.22 58.17 58.17 58.2 58.18 58.22 58.22 58.22 58.26 58.16 58.17 58.25 58.13 58.02 58.03 58.05 58.1 58.32 58.44 58.39 58.42 58.72 58.58 58.57 58.44 56.58 55.26 55.11 54.97 52.91 52.69 52.47 52.39 52.42 51.41 50.73 50.75 50.73 50.81 52.09 52.71 52.93 53.09 53.19 54.45 55.19 55.14 55 54.86 54.94 55.03 55.05 55.06 55.07 54.66 53.38 54 54.53 56.16 57.99 59.49 59.68 59.63 58.46 58.23 56.91 55.99 56.22 56.06 55.93 55.93 55.93 55.97 56.12 56.06 56.13 56.02 56.28 56.2 55.94 56 56.24 56.14 56.14 56.18 55.94 55.89 55.93 55.87 55.88 55.79 55.84 55.9 55.79 57.49 57.48 57.43 57.44 57.7 57.75 57.55 57.49 57.55 57.57 56.41 56.48 56.44 56.52 55.63 56.57 57.2 57.25 58.09 58.2 58.22 58.23 59.13 59.5 59.5 59.68 59.78 59.71 60.98 60.89 60.8 60.95 61.24 61.44 61.72 62.03 62.26 62.6 62.84 63.14 63.4 63.67 63.98 64.07 64.19 64.25 64.33 64.45 64.62 65.19 66.48 66.28 65.95 65.52 65.55 65.73 65.5 65.36 65.27 65.11 65.05 65.27 65.31 65.3 65.27 65.2 65.14 65.03 65.85 65.77 65.71 65.67 65.67 64.88 64.78 64.68 64.57 64.04 63.65 63.63 63.71 63.7 63.57 63.62 63.27 63.2 63.22 63.26 63.44 63.36 63.33 63.39 63.4 63.33 63.32 63.41 63.35 63.29 63.26 63.22 63.18 63.23 62.41 62.19 62.34 62.51 62.18 61.41 61.43 62.07 61.76 61.74 62.24 62.29 62.3 62.25 62.27 62.21 62.2 62.11 62.01 61.96 61.89 61.89 61.94 61.8 61.84 61.86 62.09 62.19 62.31 -9999 -9999 -9999 -9999 -9999 -9999 -9999 -9999 -9999 -9999 -9999 -9999
-9999 77.26 77.19 77.12 76.57 76.14 75.58 74.98 74.3 73.84 73.36 72.85 72.43 72.1 71.74 71.51 71.49 70.76 69.9 69.48 68.67 68.54 67.99 67.65 66.81 66.04 65.46 65.05 64.65 64.36 64.11 63.66 63.19 62.99 62.61 62.06 61.73 61.42 59.76 59.18 59.2 59.03 58.86 58.95 58.86 58.82 58.92 58.96 59.02 59.02 59.03 59.03 59 59.01 59.04 58.82 58.77 58.7 58.69 57.96 55.55 53.85 52.38 50.95 51.03 50.86 50.98 50.98 50.92 50.92 50.92 50.98 50.95 50.93 50.91 50.93 52.46 52.37 52.92 53.67 54.52 56.12 57.08 57.19 57.24 57.39 57.49 57.75 57.74 57.78 57.75 57.77 58.18 58.6 58.55 58.58 58.61 58.43 58.34 58.51 58.62 58.61 58.64 58.69 58.7 58.66 58.58 58.34 58.21 58.23 58.33 55.76 53.35 51.03 50.86 50.83 50.84 50.85 50.86 50.87 50.88 50.89 50.83 51.62 52.16 52.52 54.47 55.87 58.01 58.42 58.34 58.32 58.32 58.44 58.22 58.17 58.12 58.1 58.1 58.09 58.1 58.96 60.04 60.15 58.25 58.21 58.23 58.26 58.28 58.32 58.33 58.33 58.29 58.27 58.31 58.28 58.21 58.19 58.11 58.07 58.13 58.11 58.06 58.12 58.17 58.11 58.12 58.22 58.28 58.35 58.16 58.08 58.43 58.84 58.9 58.97 58.92 58.74 58.58 58.69 58.52 58.43 58.64 58.58 58.5 58.63 58.42 58.36 58.38 58.23 58.24 58.22 58.2 58.2 58.28 58.3 58.19 58.16 58.21 58.23 58.27 58.25 58.28 58.28 58.23 58.19 58.29 58.25 58.14 58.11 58.14 58.17 58.16 58.07 58.06 57.95 57.97 58.12 58.33 58.33 58.38 58.44 58.45 58.54 58.44 58.35 56.43 55.41 55.12 54.52 52.79 52.61 52.45 52.43 52.35 51.06 50.75 50.75 50.76 50.76 52.39 52.68 52.82 53.11 53.3 55.02 55.17 55.18 55 54.94 55.03 55.04 55.01 55.05 55.07 55.11 53.91 54.13 55.61 57.13 59.34 59.68 59.71 58.62 58.33 57.53 56.04 56.01 56.09 56.05 55.94 55.99 56.06 56 56.39 56.25 56.24 56.09 56.3 56.05 55.93 56.11 56.17 56.17 56.22 56.08 55.83 55.8 55.88 55.84 55.87 55.69 55.77 55.84 56.64 57.53 57.44 57.44 57.54 57.71 57.6 57.49 57.43 57.54 56.9 55.55 56.34 56.44 55.97 55.72 56.07 56.31 56.76 57.24 57.67 58.3 58.21 59.3 59.62 59.59 60.06 59.83 60.76 60.93 60.88 60.99 61.09 61.33 61.5 61.81 62 62.25 62.7 62.96 63.12 63.39 63.43 63.67 63.67 63.71 63.65 62.9 61.46 62.76 64.11 64.58 64.57 64.95 66.99 66.97 66.64 65.87 65.39 65.33 65.13 65.1 65.14 65.17 65.12 65.19 65.2 65.13 65.09 65.8 65.74 65.67 65.61 65.73 64.87 64.71 64.62 64.55 64.03 63.62 63.71 63.82 63.81 63.79 63.49 63.13 63.19 63.23 63.28 63.42 63.43 63.46 63.46 63.45 63.43 63.35 63.37 63.39 63.37 63.28 63.16 63.16 62.77 62.24 62.34 62.33 62.69 61.38 61.43 61.42 62.12 61.8 61.91 62.23 62.25 62.33 62.37 62.36 62.42 62.38 62.19 62.14 62 61.82 61.83 61.92 61.87 61.89 61.94 62.11 62.31 62.39 -9999 -9999 -9999 -9999 -9999 -9999 -9999 -9999 -9999 -9999 -9999 -9999
78.31 77.85 77.4 76.76 76.38 75.92 75.29 74.79 74.35 73.99 73.44 72.94 72.14 71.54 71.44 71.45 70.57 69.88 69.36 68.84 68.24 67.57 67.46 67.38 66.99 65.79 65.06 64.56 63.88 63.51 63.23 62.88 62.35 62.06 61.72 61.4 60.94 59.84 59.16 59.13 59.06 58.89 58.94 58.89 58.87 58.97 59.01 59.01 59 59 59.12 59.04 58.99 59.1 58.96 58.87 58.66 56.43 56.96 55.95 53.69 52.34 51.12 50.93 50.97 51.04 50.86 50.97 50.99 50.9 50.93 50.91 50.98 50.96 50.94 51.83 52.71 52.98 53.55 54.59 55.59 57.31 57.34 57.32 57.41 57.61 57.61 57.75 57.74 57.79 57.68 57.97 58.34 58.55 58.52 58.51 58.51 58.45 58.41 58.5 58.39 58.66 58.76 58.81 58.86 58.84 58.77 58.73 58.73 58.85 58.05 55.35 53.29 50.88 50.84 50.86 50.87 50.87 50.85 50.86 50.88 50.91 50.87 51.16 52.07 52.65 53.91 56.05 58.17 58.39 58.36 58.28 58.27 58.24 58.2 58.13 58.11 58.09 58.1 58.14 58.12 58.14 58.14 58.22 58.19 58.17 58.26 58.2 58.23 58.33 58.43 58.36 58.26 58.29 58.29 58.24 58.19 58.13 58.12 58.04 58.02 58.07 58.12 58.06 58.21 58.08 58.15 58.21 58.24 58.25 58.06 58.31 58.67 58.83 58.95 58.88 58.9 59.46 58.69 58.7 58.59 58.69 58.6 58.54 58.69 58.54 58.38 58.4 58.28 58.31 58.24 58.2 58.22 58.16 58.35 58.26 58.13 58.12 58.2 58.26 58.27 58.31 58.34 58.36 58.41 58.31 58.32 58.24 58.07 58.12 58.14 58.14 58.11 57.98 58.05 57.99 58 58.17 58.23 58.3 58.32 58.37 58.41 58.47 58.41 58.3 56.59 55.38 55.09 53.93 52.77 52.53 52.46 52.51 51.77 50.97 50.73 50.73 50.76 51.18 52.63 52.71 52.82 53.08 53.37 55.06 55.23 55.05 54.94 55.01 55.1 55.14 55.14 55.07 55.14 55.12 54.13 55.02 56.54 58.46 59.62 59.77 59.11 58.39 58.05 55.89 56.01 56 55.97 56.13 56.13 56.05 56.18 56.09 56.36 56.4 56.28 56.25 56.05 55.99 56.07 56.28 56.19 56.15 56.18 55.98 56.07 55.88 55.81 55.78 55.71 55.72 55.68 55.77 57.51 57.45 57.42 57.46 57.68 57.7 57.51 57.44 57.52 57.52 55.58 56.14 55.97 55.56 55.61 55.76 55.9 56.15 56.63 57.05 57.42 58.02 58.68 59.14 59.75 60.19 60.19 59.92 61.07 61.01 61.03 61.06 61.2 61.33 61.53 61.86 61.88 62.15 62.78 62.98 63.12 63.24 63.24 63.34 63.29 63.09 62.7 61.46 61.85 62.18 63.5 63.99 64.18 64.06 63.38 64.57 67.23 66.38 65.77 65.46 65.44 65.18 65.15 65.17 65.16 65.12 65.12 65.11 65.2 65.88 65.64 65.61 65.67 65.92 64.85 64.72 64.58 64.32 63.86 63.59 63.72 63.89 63.78 63.67 63.43 63.15 63.23 63.26 63.49 63.51 63.55 63.54 63.52 63.49 63.46 63.43 63.43 63.35 63.37 63.45 63.2 63.18 62.57 62.19 62.36 62.46 62.41 61.45 61.37 62.14 61.83 61.73 62.03 62.38 62.37 62.36 62.36 62.35 62.42 62.31 62.27 62.42 62.31 62.01 61.95 61.85 61.88 61.89 61.94 62.58 62.32 62.44 -9999 -9999 -9999 -9999 -9999 -9999 -9999 -9999 -9999 -9999 -9999 -9999
