ncols         439
nrows         36
xllcenter     355260
yllcenter     499065
cellsize      5
nodata_value  -9999
-9999 -9999 -9999 -9999 76.01 76.06 75.91 75.72 75.67 75.73 75.78 75.73 75.7 75.67 75.72 76.11 75.71 75.79 75.76 75.78 75.87 75.78 75.97 75.86 75.74 75.58 75.61 75.78 75.68 75.77 75.69 75.72 75.99 75.99 75.73 75.91 75.78 75.68 75.54 75.52 75.46 75.33 75.22 75.08 74.99 75.01 75.01 74.81 74.84 74.79 74.78 74.78 74.69 74.64 74.67 74.68 74.69 74.64 74.44 74.7 74.68 74.9 74.67 74.57 74.33 74.05 74.03 74 73.97 73.89 73.81 73.69 73.63 73.57 73.52 73.44 73.35 73.28 73.19 73.1 73.01 72.91 72.83 72.75 72.65 72.57 72.51 72.43 72.36 72.29 72.21 72.13 72.03 71.94 71.88 71.83 71.8 71.79 71.66 71.58 71.44 71.31 71.17 71.14 70.99 70.84 70.72 70.61 70.49 70.37 70.24 70.08 70.01 69.9 69.8 69.65 69.61 69.41 69.7 69.15 69.01 69.02 68.74 68.73 68.58 68.59 68.36 68.18 68.11 68.05 67.96 67.81 67.88 67.72 67.61 67.61 67.53 67.34 67.29 67.16 67.13 66.98 66.87 66.79 66.75 66.71 66.66 66.37 66.18 66.07 66.02 66.05 65.73 65.63 65.52 65.44 65.36 65.22 65.15 65.02 64.9 64.77 64.71 64.6 64.5 64.37 64.27 64.11 64.03 63.92 63.9 63.77 63.71 63.55 63.39 63.27 63.1 63.12 63.05 63.12 63.05 62.91 62.82 62.41 62.23 62.29 62.42 62.59 62.75 62.45 62.32 62.38 62.51 62.39 62.13 61.68 61.83 61.88 61.95 61.91 61.84 61.85 61.74 61.75 61.78 61.76 61.8 61.85 61.84 61.81 61.85 61.8 61.78 61.99 62.09 62.22 62.31 61.93 61.94 61.9 61.85 61.96 61.7 61.6 61.69 61.77 61.58 61.44 61.15 61.6 61.58 61.56 60.56 60.09 60.03 60.41 60.71 61.1 61.16 61.51 61.45 61.48 61.66 61.5 61.39 61.38 61.14 61.19 61.19 61.31 61.09 61.15 60.98 60.92 60.95 60.89 60.83 60.79 60.77 60.76 60.72 60.81 60.81 60.87 60.93 60.96 60.98 60.99 61 61.1 60.94 61.16 61.25 61.37 61.4 61.47 61.3 61.09 60.89 60.99 60.86 60.83 60.64 60.52 60.44 60.47 60.49 60.55 61.24 61.14 61.04 61.38 61.57 61.3 60.71 60.59 60.9 60.7 60.72 60.69 60.47 60.49 60.45 60.3 60.16 60.03 60.07 60.09 60.12 60.13 60.09 59.94 56.64 56.49 56.41 56.44 56.5 59.46 59.46 59.92 59.81 59.8 57.39 57.41 56.75 56.18 55.63 55.26 55.45 54.6 53.82 52.63 52.63 52.6 52.58 52.62 52.6 52.59 52.59 52.61 52.61 52.57 54.64 55.16 56.18 56.45 56.54 56.64 56.61 56.6 56.48 56.27 57.56 57.51 56.92 56.89 56.87 56.75 56.49 56.46 56.42 55.66 56.44 56.66 56.99 56.05 56.29 57.12 57.59 57.17 57.52 57.5 56.84 56.84 56.87 56.59 56.43 56.54 56.65 56.61 56.58 56.5 56.53 56.52 56.54 56.56 56.61 57 57.33 57.24 56.23 55.52 54.65 54.19 54.99 56.26 56.58 56.65 56.69 57.35 57.62 57.03 57.29 57.52 57.44 57.15 56.73 56.6 56.73 56.6 56.56 56.76 56.67 56.82 56.78 57.06 56.65 56.55 56.65 56.59 56.52 56.94 57.15 57.3 56.99 56.93 57.02 57.03 56.97 57.04 -9999 -9999 -9999 -9999 -9999 -9999 -9999 -9999 -9999
-9999 -9999 -9999 -9999 75.61 75.63 75.69 75.61 75.52 75.62 75.61 75.65 75.62 75.63 75.75 75.84 75.73 75.72 75.72 75.76 75.8 75.82 75.79 75.77 75.88 75.69 75.79 75.78 75.85 75.78 75.72 75.71 75.84 75.88 75.75 75.88 75.66 75.61 75.46 75.42 75.29 75.32 75.23 75.28 75.23 75.12 74.84 74.85 74.94 74.79 74.83 74.81 74.78 74.7 74.77 74.71 74.78 74.67 74.56 74.46 74.45 74.36 74.29 74.24 74.21 74.1 74.02 73.99 73.95 73.96 73.78 73.69 73.77 73.7 73.55 73.45 73.39 73.22 73.24 73.12 73.07 73.03 72.96 72.91 72.8 72.66 72.58 72.45 72.45 72.37 72.26 72.27 71.9 72.4 72.14 72 71.94 72.05 71.93 71.84 71.67 71.43 71.42 71.51 71.31 70.99 71.04 70.97 70.95 70.81 70.52 70.15 69.93 69.86 69.57 69.43 69.22 69.1 68.99 69.16 68.83 68.6 68.43 68.33 68.27 68.22 68.1 67.99 68.19 68.18 67.98 67.9 67.73 67.64 67.35 67.3 67.6 67.41 67.35 67.27 67 67.05 66.81 66.37 66.49 66.79 66.45 66.28 66.22 66.13 66.15 66.14 65.97 65.6 65.62 65.43 65.37 65.35 65.14 65.06 64.96 64.84 64.72 64.6 64.48 64.45 64.31 64.15 64.04 63.93 63.85 63.78 63.67 63.52 63.42 63.27 63.23 63.17 63.03 63 62.92 62.81 62.65 62.32 62.32 62.4 62.41 62.47 62.48 62.36 62.33 62.27 62.38 62.33 62.12 61.74 61.79 61.79 61.95 61.77 61.92 61.83 61.75 61.77 61.83 61.92 61.79 61.84 61.82 61.83 61.82 61.86 61.8 61.87 61.97 62.08 62.2 61.95 61.78 61.7 62.04 61.9 61.61 61.65 61.77 61.75 61.56 61.39 61.21 61.6 61.53 61.36 60.38 60.04 59.89 59.87 59.95 60.17 60.57 61.59 61.43 61.48 61.74 61.46 61.44 61.79 61.37 61.26 61.14 61.09 60.95 60.96 60.9 60.78 60.95 60.84 60.85 60.75 60.75 60.8 60.81 60.83 60.76 60.71 60.81 60.86 61.25 60.92 60.87 61.51 61.36 61.22 61.68 61.48 61.48 61.46 61.38 61.14 60.94 61.05 60.91 60.91 60.48 60.49 60.48 60.44 60.4 60.53 60.42 60.98 61.08 61.37 61.51 61.31 61.29 61.22 60.7 60.64 60.63 60.66 60.47 60.43 60.39 60.38 60.18 60.06 60.06 60.16 60.24 60.21 60.19 60.08 56.42 56.44 56.47 56.44 58.7 59.5 59.56 59.98 59.88 59.29 57.3 57.25 56.75 56.18 55.4 55.03 54.56 53.42 52.61 52.69 52.69 52.66 52.62 52.59 52.62 52.71 52.64 52.63 52.63 52.58 54.97 55.78 56.48 56.54 56.57 56.64 56.55 56.52 56.47 56.21 57.56 57.08 56.73 56.85 56.81 56.69 56.59 56.48 56.37 55.95 56.46 55.84 56.74 57.45 57.7 57.02 57.69 57.18 56.92 57.44 56.66 56.71 56.79 56.73 56.66 56.6 56.61 56.21 56.09 56.39 56.36 56.22 56.17 56.25 56.16 56.29 56.66 57.59 56.42 55.28 54.83 55.65 56.89 57.11 57.44 57.66 56.87 57.56 57.32 56.39 56.45 56.44 56.4 56.82 56.66 56.53 56.7 56.76 56.78 56.75 56.73 56.75 56.77 56.84 56.62 56.65 56.6 56.68 56.63 56.23 56.74 57.03 56.98 56.99 56.98 57.01 56.9 56.95 -9999 -9999 -9999 -9999 -9999 -9999 -9999 -9999 -9999
-9999 -9999 -9999 -9999 75.66 75.61 75.64 75.58 75.6 75.59 75.57 75.54 75.59 75.62 76.09 75.7 75.7 75.64 75.67 75.72 75.75 75.79 75.77 75.78 75.91 75.68 75.8 75.77 75.97 75.92 75.79 75.79 75.8 75.85 75.74 75.77 75.69 75.52 75.41 75.31 75.29 75.19 75.28 75.36 75.38 75.25 74.81 75.14 74.96 74.84 74.94 74.92 74.92 74.74 74.71 74.63 74.58 74.49 74.45 74.42 74.36 74.36 74.27 74.28 74.18 74.17 74.14 74.28 74.28 74.32 73.79 73.64 73.67 73.59 73.72 73.59 73.56 72.86 73.37 73.42 73.18 73.06 72.92 72.9 72.84 72.67 72.6 72.51 72.4 72.26 72.18 72.16 71.49 72.03 72.29 72 72.08 72.08 71.9 71.8 71.68 71.51 71.63 71.5 71.36 71.31 71.09 71.04 70.9 70.66 70.05 70 69.94 69.59 69.4 69.2 69.02 68.87 68.84 68.79 68.82 68.53 68.49 68.33 68.23 68.22 68.02 68 68.04 68.01 67.93 67.77 67.73 67.6 67.45 67.39 67.48 67.45 67.46 67.46 66.99 67.01 67.19 66.57 65.94 66.91 66.42 66.31 66.23 66.07 66.15 66.01 65.73 65.6 65.63 65.39 65.44 65.41 65.18 65.11 64.99 64.8 64.58 64.42 64.45 64.48 64.31 64.15 64.08 63.97 63.83 63.7 63.59 63.44 63.37 63.26 63.19 63.12 63.02 62.86 62.76 62.6 62.51 62.39 62.33 62.29 62.33 62.29 62.29 62.22 62.27 62.21 62.33 62.16 62.05 61.79 61.76 61.71 61.87 61.81 61.94 61.81 61.79 61.76 61.79 61.84 61.84 61.79 61.82 61.78 61.8 61.79 61.76 61.86 61.89 61.98 62.1 61.92 61.72 61.68 61.97 61.76 61.67 61.67 61.81 61.71 61.56 61.32 61.59 61.64 61.53 60.98 60.16 59.94 59.79 59.75 60 59.91 60.68 61.56 61.47 61.46 61.59 61.45 61.63 61.49 61.76 61.29 61.16 60.99 60.87 60.81 60.83 60.93 60.9 60.92 60.75 60.73 60.81 60.85 60.77 60.76 60.73 60.76 60.73 60.85 61.15 60.84 60.5 60.92 61.42 61.64 61.92 61.67 62.29 61.33 61.14 61.07 61.05 61.01 60.93 60.95 60.56 60.44 60.44 60.47 60.52 60.55 60.42 61.02 61.07 61.25 61.6 61.45 61.36 61.16 60.74 60.64 60.6 60.62 60.46 60.44 60.41 60.34 60.24 60.13 60.12 60.27 60.31 60.36 60.41 59.71 56.46 56.47 56.41 56.44 59.48 59.4 59.74 61.06 61.3 59.37 57.19 57.08 56.52 56.04 55.19 54.94 54.65 52.7 52.61 52.67 52.67 52.67 52.66 52.65 52.61 52.56 52.65 52.74 52.77 52.86 55.04 56.09 57.25 56.55 56.51 56.51 56.56 56.6 56.45 56.29 57.43 56.64 56.93 57 56.72 56.77 56.5 56.43 56.39 56.54 57.09 57.71 57.14 57.67 57.41 56.93 56.6 56.86 57.51 57.62 56.67 56.74 56.76 56.82 56.74 56.64 56.65 56.55 56.47 56.45 56.4 56.36 56.27 56.25 56.2 56.15 56.41 57.67 57.43 56.18 56.55 57.41 57.65 56.93 57.6 57.22 56.55 56.46 56.43 56.31 56.45 56.51 56.47 56.83 56.82 56.68 56.76 56.79 56.73 56.77 56.78 56.75 56.76 56.93 56.64 56.63 56.54 56.64 56.58 56.15 57.36 56.9 57.15 56.87 57 57.04 56.92 56.89 -9999 -9999 -9999 -9999 -9999 -9999 -9999 -9999 -9999
-9999 -9999 -9999 -9999 75.62 75.65 75.71 75.7 75.57 75.6 75.54 75.69 75.63 75.77 75.66 75.65 75.65 75.63 75.68 75.74 75.92 75.75 75.78 75.84 75.93 75.82 75.84 75.94 75.97 75.95 75.88 75.83 75.71 75.83 75.71 75.71 75.72 75.62 75.44 75.44 75.3 75.21 75.28 75.3 75.38 75.23 74.78 75 75.25 74.86 75.23 74.77 74.72 74.58 74.59 74.56 74.55 74.48 74.42 74.44 74.44 74.41 74.47 74.46 74.38 74.43 74.37 74.33 74.28 74.28 73.71 73.67 73.63 73.58 73.77 73.52 73.3 73.15 73.24 73.17 73.03 73 72.98 72.93 72.86 72.71 72.54 72.53 72.47 72.17 72.12 72.12 71.31 71.65 72.02 71.93 72 72.07 71.97 71.84 71.7 71.59 71.58 71.51 71.58 71.6 71.19 71.11 70.86 70.68 70.1 70.05 70.09 69.66 69.46 69.19 69.09 68.92 68.9 68.73 68.71 68.5 68.4 68.24 68.16 68.11 68.01 67.97 67.98 67.76 67.74 67.63 67.69 67.65 67.55 67.44 67.33 67.4 67.39 67.22 66.98 66.89 66.96 66.89 66.82 66.75 66.5 66.29 66.37 66.18 66.09 65.96 65.77 65.58 65.6 65.43 65.41 65.31 65.11 65.02 64.97 64.66 64.54 64.37 64.56 64.36 64.2 64 64.08 63.96 63.82 63.74 63.67 63.53 63.38 63.28 63.24 63.13 62.92 62.85 62.7 62.61 62.5 62.43 62.37 62.35 62.29 62.2 62.12 62.08 62.11 62.05 62.05 62.1 62.07 62.17 62.04 61.91 61.83 61.96 61.98 61.81 61.77 61.83 61.84 61.86 61.86 61.86 61.82 61.79 61.8 61.77 61.78 61.99 62.04 61.97 61.79 61.83 61.66 61.63 61.83 61.77 61.69 61.74 61.82 61.77 61.52 61.24 61.56 61.55 61.54 60.92 60.2 60.11 59.81 59.93 59.88 59.83 61.53 61.41 61.53 61.66 61.54 61.46 61.65 61.6 61.27 61.08 61.1 61.09 60.97 60.84 60.81 60.85 60.87 60.8 60.84 60.71 60.86 60.9 60.85 60.82 60.81 60.8 60.68 60.63 60.65 61.18 60.69 60.88 61.21 61.27 61.57 61.71 62.17 62 61.83 61.67 61.3 61.12 60.83 61.3 60.68 60.5 60.55 60.53 60.48 60.45 60.41 60.64 60.93 61.18 61.36 61.62 61.05 60.96 60.72 60.7 60.63 60.6 60.46 60.52 60.44 60.44 60.28 60.18 60.24 60.31 60.31 60.31 60.29 56.44 56.43 56.48 56.5 56.41 59.42 59.53 59.17 60.46 60.34 58.69 56.99 57.13 56.52 55.9 55.47 54.9 54.15 52.54 52.6 52.65 52.65 52.65 52.65 52.64 52.64 52.64 52.6 52.59 52.68 52.7 55.29 55.85 56.19 56.21 56.29 56.53 56.49 56.43 56.19 56.21 57.01 57.11 56.85 56.89 56.65 56.55 56.5 56.75 57.45 57.7 57.05 57.76 57.09 56.85 56.58 56.38 56.21 56.8 57.47 57.84 56.64 56.65 56.69 56.71 56.78 56.79 56.7 56.61 56.52 56.4 56.32 56.39 56.34 56.25 56.1 56.23 56.47 56.79 57.05 57.5 56.88 57.61 57.02 56.6 56.46 56.44 56.35 56.48 56.41 56.42 56.46 56.55 56.51 56.6 56.77 56.76 56.79 56.86 56.76 56.75 56.74 56.74 56.74 56.8 56.58 56.61 56.54 56.63 56.57 56.53 56.92 56.96 57.29 56.99 56.99 57.06 56.87 56.9 -9999 -9999 -9999 -9999 -9999 -9999 -9999 -9999 -9999
-9999 -9999 -9999 -9999 75.65 75.65 75.67 75.61 75.62 75.61 75.53 75.58 75.69 75.65 75.68 75.68 75.77 75.7 75.66 75.73 75.74 75.92 75.78 75.8 75.88 75.95 75.79 75.93 76.01 75.94 75.85 75.92 75.78 75.79 75.69 75.71 75.74 75.64 75.52 75.4 75.48 75.27 75.24 75.2 75.12 75.04 74.91 74.98 74.85 74.69 74.67 74.69 74.69 74.62 74.62 74.69 74.63 74.58 74.58 74.63 74.56 74.58 74.7 74.8 74.69 74.45 74.45 74.52 74.37 74.27 73.92 73.64 73.6 73.53 73.74 73.52 73.3 73.05 73.31 73.05 73.05 73.02 72.96 72.96 72.88 72.71 72.56 72.46 72.25 72.13 72.07 72.18 72.12 72.04 72.12 71.87 71.94 71.84 71.85 71.86 71.8 71.62 71.64 71.74 71.52 71.35 71.13 71.04 70.97 70.65 70.27 70.15 69.73 69.63 69.5 69.23 69.09 68.93 68.84 68.74 68.63 68.51 68.37 68.22 68.14 68.03 67.97 67.9 67.96 67.83 67.79 67.72 67.59 67.78 67.59 67.34 67.43 67.26 67.13 67.1 67 67.03 66.89 66.81 66.82 66.78 66.44 66.36 66.33 66.2 66.13 65.97 65.76 65.58 65.55 65.29 65.33 65.28 65.12 64.88 65.02 64.74 64.54 64.32 64.31 64.21 64.15 63.96 64.01 64.03 63.87 63.72 63.75 63.74 63.51 63.17 63.09 62.99 62.91 62.88 62.76 62.67 62.59 62.54 62.5 62.35 62.24 62.17 62.13 62.1 62.11 62.08 62.05 61.99 61.94 61.89 61.88 61.88 61.88 61.87 61.95 62.04 62.05 62.07 61.89 61.88 61.92 61.9 61.85 61.84 61.89 61.81 61.84 62.03 61.98 61.79 61.87 61.77 61.63 61.63 61.83 61.7 61.7 61.8 61.82 61.75 61.43 61.06 61.62 61.58 61.48 60.66 60.21 60.06 60.01 59.9 59.83 60.22 61.63 61.47 61.48 61.68 61.49 61.46 61.49 61.57 61.34 61.25 61.21 61.16 60.92 60.87 60.8 60.98 60.97 60.93 60.76 60.77 60.86 60.95 60.92 60.95 61.12 60.95 60.9 60.69 60.66 60.64 60.63 60.69 60.69 60.86 60.96 61.31 61.58 61.22 60.86 61.01 60.85 62.32 60.9 60.9 60.48 60.4 60.47 60.51 60.54 60.52 60.48 60.48 60.46 61.02 61.16 61.14 60.75 60.91 60.83 60.96 60.73 60.5 60.43 60.5 60.29 60.38 60.28 60.18 60.26 60.44 60.32 60.35 60.14 56.39 56.43 56.45 56.38 59.17 59.47 59.06 59.18 60.12 60.21 58.08 57.14 57.32 56.42 55.69 55.28 54.59 52.85 52.55 52.58 52.63 52.63 52.63 52.63 52.63 52.62 52.62 52.62 52.62 52.57 52.65 55.69 55.53 55.86 55.98 56.35 56.59 56.44 56.38 56.13 56.48 57.49 56.99 56.76 56.77 56.66 57.14 57.8 57.14 57.69 57.56 56.73 56.39 56.4 56.24 56.28 56.26 56.32 56.48 56.89 57.9 56.45 56.52 56.67 56.88 56.85 56.78 56.65 56.67 56.52 56.42 56.28 56.27 56.23 56.28 56.12 56.25 56.36 56.5 57.03 57.37 56.45 56.33 56.65 56.49 56.53 56.53 56.5 56.48 56.52 56.52 56.53 56.54 56.49 56.49 56.78 56.73 56.8 56.77 56.71 56.8 56.81 56.79 56.73 56.74 57 56.61 56.62 56.6 56.59 56.57 56.12 56.77 56.86 57.01 57.07 56.94 56.95 56.87 -9999 -9999 -9999 -9999 -9999 -9999 -9999 -9999 -9999
-9999 -9999 -9999 -9999 75.62 75.65 75.63 75.61 75.63 75.57 75.58 75.69 75.74 75.68 75.67 75.73 75.82 75.8 75.81 75.75 75.81 75.81 75.82 75.76 75.81 75.87 75.83 75.91 75.85 75.88 75.83 75.93 75.84 75.59 75.56 75.72 75.67 75.67 75.45 75.44 75.39 75.28 75.07 74.96 74.86 74.83 74.83 74.81 74.77 74.71 74.68 74.77 74.75 74.71 74.78 74.88 74.71 74.62 73.55 74.72 74.69 74.64 74.64 74.68 74.64 74.53 74.6 74.56 74.35 74.25 74.05 73.68 73.69 73.57 73.57 73.44 73.22 72.98 72.99 72.99 73.01 73.02 72.97 72.99 72.91 72.68 72.51 72.49 72.29 72.28 72.27 72.17 72.21 72.28 72.18 71.93 71.91 71.91 71.89 71.85 71.76 71.63 71.7 71.48 71.3 71.19 71.07 71.05 70.86 70.46 70.45 70.15 69.77 69.7 69.49 69.2 69.11 68.97 68.83 68.74 68.52 68.42 68.31 68.23 68.19 68.08 67.95 67.91 67.89 67.71 67.62 67.71 67.58 67.46 67.5 67.36 67.22 67.3 67.07 67.02 67.04 66.92 66.86 66.79 66.77 66.68 66.49 66.52 66.45 66.27 66.1 65.79 65.7 65.61 65.46 65.35 65.31 65.12 65.11 64.96 64.82 64.68 64.61 64.18 64.18 64.22 64.14 63.87 63.85 63.86 63.73 63.7 63.75 63.71 63.39 63.17 63.12 62.98 62.82 62.53 62.46 62.48 62.55 62.54 62.41 62.36 62.42 62.34 62.27 62.24 62.26 62.03 62.01 61.98 61.94 61.93 61.91 61.9 61.88 61.83 61.84 61.79 61.74 61.77 61.92 61.93 61.96 61.98 62.03 62.08 62.09 61.87 61.89 61.95 62.04 62.02 61.91 61.79 61.63 61.79 61.91 61.68 61.7 61.82 61.8 61.83 61.39 61.05 61.56 61.54 60.96 60.41 60.23 60.11 60.05 59.88 59.76 61.34 61.61 61.52 61.43 61.67 61.48 61.45 61.5 61.47 61.24 61.18 61.14 61.2 61.25 61.34 61.35 61.14 60.89 60.9 60.86 60.83 60.9 61.02 60.99 60.97 61.08 60.96 61.03 61.09 60.87 60.62 60.65 60.55 60.57 60.57 60.59 60.9 60.81 60.82 60.79 60.81 60.76 60.76 60.54 60.6 60.66 60.72 60.3 60.4 60.52 60.53 60.53 60.53 60.51 60.48 61.08 61.08 60.88 60.89 61.38 60.59 59.94 60.62 60.59 60.62 60.58 60.29 60.24 60.3 60.3 60.38 60.44 60.71 60.04 56.43 56.37 56.58 58.05 59.93 59.71 59.21 59.27 58.93 58.76 57.31 57 57.4 56.13 55.53 55.14 54.63 52.81 52.56 52.56 52.62 52.61 52.61 52.61 52.61 52.61 52.61 52.6 52.6 52.61 53.5 55.35 55.16 55.57 55.88 56.34 56.37 56.32 56.31 56.22 57.07 57.7 57.27 56.83 57.59 57.72 57.24 57.78 57.12 56.56 56.5 56.32 56.11 56.23 56.3 56.34 56.39 56.38 56.43 56.66 57.83 56.62 56.41 56.6 56.87 56.88 56.73 56.69 56.62 56.5 56.43 56.36 56.28 56.29 56.16 56.35 56.29 56.42 56.52 57.31 57.17 56.17 56.46 56.48 56.48 56.57 56.43 56.44 56.46 56.52 56.47 56.5 56.47 56.53 56.56 56.72 56.71 56.75 56.71 56.74 56.8 56.81 56.77 56.73 56.71 56.97 56.67 56.64 56.59 56.65 56.62 56.16 57.44 56.75 57.02 57.02 56.93 56.92 56.89 -9999 -9999 -9999 -9999 -9999 -9999 -9999 -9999 -9999
-9999 -9999 -9999 -9999 75.57 75.62 75.75 75.67 75.69 75.66 75.69 75.79 75.8 75.81 75.69 75.81 75.81 75.81 75.84 75.79 75.81 75.9 75.84 75.72 75.91 75.92 75.77 75.95 75.84 75.83 75.79 75.78 75.61 75.49 75.41 75.33 75.32 75.18 75.16 75.14 75.08 75.04 75.02 74.95 74.89 74.84 74.81 74.88 74.83 74.74 74.79 74.78 74.74 74.74 74.73 74.88 74.72 74.66 74.14 74.74 74.26 74.65 74.67 74.66 74.51 74.53 74.6 74.8 74.31 74.25 74.08 73.73 73.7 73.57 73.47 73.31 73.2 73.01 73.06 73.12 73 73.01 72.99 73.01 72.78 72.57 72.5 72.48 72.43 72.25 72.21 72.1 71.99 72.02 71.99 71.88 71.89 71.97 71.93 71.88 71.74 71.6 71.64 71.38 71.36 71.41 71.52 70.91 70.82 70.52 70.25 69.98 69.69 69.56 69.31 69.22 68.93 68.78 68.63 68.37 68.52 68.53 68.34 68.14 68.06 68.03 67.83 67.81 67.81 67.78 67.81 67.61 67.55 67.43 67.39 67.3 67.22 67.25 67.07 67.03 66.99 66.91 66.79 66.77 66.68 66.53 66.44 66.38 66.34 66.29 66.04 65.91 65.72 65.59 65.45 65.3 65.23 65.43 65.3 64.97 64.95 64.68 64.65 64.56 64.26 64.19 64.42 63.9 63.8 63.7 63.68 63.77 63.8 63.65 63.3 63.06 62.94 62.89 62.86 62.61 62.52 62.56 62.5 62.49 62.53 62.41 62.38 62.14 62.32 62.02 61.96 62.06 62.03 62.03 62.09 62.09 61.98 62.14 61.96 61.84 61.86 61.76 61.74 61.73 61.74 61.76 61.79 61.83 61.84 61.79 61.78 61.75 61.79 61.85 61.94 61.92 61.84 61.72 61.82 61.89 61.83 61.7 61.78 61.88 61.8 61.76 61.37 61.59 61.6 61.65 60.89 60.44 60.4 60.21 60.13 60.06 60.35 61.73 61.46 61.55 61.69 61.48 61.46 61.47 61.47 61.67 61.37 61.3 61.18 61.26 61.34 61.34 61.29 60.99 60.94 60.85 60.82 60.78 60.95 61.03 61.07 61.06 61.02 60.91 61.07 61.06 61.06 60.82 60.88 60.86 60.61 60.57 60.56 60.52 60.64 60.57 60.9 60.85 60.81 60.85 60.54 60.51 60.66 60.72 60.6 60.97 60.77 60.56 60.54 60.52 60.53 60.6 60.89 61.02 60.98 60.38 58.89 58.77 58.97 59.04 58.91 60.29 60.17 60.21 60.26 60.38 60.33 60.39 60.38 60.19 60.19 59.91 60.86 60.47 60.2 59.98 59.8 59.3 58.9 57.83 57.62 57.2 57.01 56.95 55.79 55.41 54.76 54.01 52.63 52.57 52.55 52.6 52.6 52.59 52.59 52.59 52.59 52.59 52.59 52.6 52.6 53.63 55.23 55.2 55.29 55.86 56.27 56.38 56.3 56.22 56.22 57.53 57.68 57.77 57.12 57.78 57.46 56.87 56.47 56.41 56.45 56.39 56.29 56.29 56.28 56.35 56.42 56.44 56.51 56.55 56.61 57.7 56.58 56.44 56.47 56.77 56.86 56.73 56.69 56.69 56.56 56.4 56.34 56.25 56.23 56.14 56.28 56.45 56.38 56.51 57.12 56.58 56.4 56.48 56.4 56.49 56.43 56.4 56.45 56.48 56.47 56.49 56.55 56.57 56.55 56.51 56.71 56.76 56.83 56.71 56.74 56.73 56.86 56.79 56.73 56.78 56.99 56.63 56.57 56.58 56.6 56.57 56.53 56.98 56.77 57.29 56.98 57.01 57 56.91 -9999 -9999 -9999 -9999 -9999 -9999 -9999 -9999 -9999
-9999 -9999 -9999 -9999 75.57 75.87 75.68 75.72 75.77 75.73 75.8 75.78 75.9 75.88 75.83 75.85 75.89 75.93 75.92 75.84 75.93 75.98 75.89 75.78 75.85 75.76 75.62 75.62 75.58 75.58 75.57 75.52 75.49 75.47 75.41 75.36 75.28 75.23 75.18 75.15 75.06 75.14 75.08 75.05 74.95 75.03 75.03 74.97 74.9 74.82 74.81 74.75 74.74 74.76 74.77 74.98 74.72 74.74 74.69 74.68 74.53 74.65 74.56 74.66 74.56 74.52 74.48 74.44 74.24 74.19 74.12 73.76 73.67 73.56 73.37 73.23 73.11 72.95 72.84 73.26 72.98 72.97 72.94 72.97 72.63 72.57 72.68 72.55 72.44 72.27 72.22 72.08 71.92 71.91 71.8 71.8 71.93 71.88 71.88 71.79 71.73 71.56 71.54 71.38 71.46 71.44 70.97 70.87 70.75 70.47 70.4 69.95 70.45 70.31 69.23 69.07 68.89 68.7 68.39 68.4 68.26 68.43 68.24 68.1 68.05 67.91 67.82 67.74 67.81 67.66 67.74 67.62 67.52 67.37 67.29 67.28 67.23 67.3 67.13 67.13 67.18 66.92 66.8 66.71 66.63 66.53 66.51 66.33 66.37 66.17 65.99 65.95 65.7 65.59 65.44 65.3 65.29 65.38 65.36 65.18 64.95 64.72 64.6 64.44 64.39 64.28 64.35 63.88 63.8 63.68 63.75 63.6 63.71 63.5 63.17 62.92 62.91 62.87 62.8 62.54 62.52 62.57 62.5 62.4 62.57 62.3 62.25 62.13 62.37 61.89 61.87 62.07 62.05 61.93 62.13 62.06 62.08 62.13 62.08 62.05 62.02 61.99 61.99 61.99 61.96 61.92 61.81 61.79 61.82 61.82 61.83 61.83 61.78 61.76 61.74 61.71 61.67 61.66 61.65 61.7 61.68 61.82 61.81 61.84 61.8 61.62 61.28 61.54 61.55 61.57 61.05 60.84 60.56 60.47 60.36 61.7 60.8 61.71 61.46 61.53 61.67 61.45 61.44 61.57 61.55 61.47 61.37 61.47 61.45 61.48 61.38 61.08 61.01 60.92 60.95 60.81 60.79 60.73 60.73 60.92 61.08 61.08 60.96 60.86 61.07 61.08 61.22 60.92 60.99 60.83 60.89 60.75 60.82 60.51 60.56 60.54 60.57 60.58 60.61 60.68 60.5 60.47 60.57 60.61 60.65 60.91 60.76 60.67 60.63 60.88 60.57 60.59 60.93 60.95 60.09 58.75 58.48 58.58 58.85 58.98 58.64 60.16 60.37 60.48 60.33 60.44 60.42 60.39 60.33 60.24 60.04 59.83 59.57 59.45 59.81 59.97 59.87 59.14 58.45 58.36 57.92 57.3 57.29 56.64 55.86 55.64 54.13 52.71 52.65 52.58 52.53 52.58 52.58 52.58 52.57 52.57 52.58 52.58 52.59 52.6 52.58 53.93 54.99 54.99 55.22 55.92 56.33 56.46 56.46 56.15 56.52 57.63 57.72 57.74 57.22 56.84 56.66 56.58 56.45 56.47 56.44 56.46 56.28 56.15 56.16 56.35 56.41 56.35 56.46 56.44 57.05 57.61 56.51 56.39 56.53 56.68 56.84 56.8 56.83 56.75 56.6 56.37 56.33 56.22 56.14 56.28 56.22 56.29 56.41 56.6 56.69 56.37 56.49 56.48 56.48 56.47 56.43 56.49 56.54 56.57 56.5 56.55 56.61 56.53 56.52 56.55 56.89 56.75 56.72 56.75 56.75 56.77 56.83 56.84 56.73 56.79 56.71 56.66 56.6 56.51 56.61 56.72 56.64 56.29 56.93 56.92 57.04 57.05 57.05 56.91 -9999 -9999 -9999 -9999 -9999 -9999 -9999 -9999 -9999
-9999 -9999 -9999 -9999 75.67 75.7 75.69 75.8 75.76 75.83 75.89 75.75 75.75 75.76 75.77 75.8 75.83 75.82 75.84 75.82 75.81 75.77 75.78 75.77 75.72 75.7 75.66 75.62 75.57 75.52 75.49 75.45 75.46 75.4 75.39 75.39 75.44 75.39 75.36 75.17 75.11 75.16 75.3 74.65 74.88 75.08 75.17 74.92 74.98 74.86 74.86 74.85 74.79 74.74 75.03 74.92 74.84 74.72 74.55 73.67 73.52 74.61 74.56 74.67 74.6 74.55 74.51 74.56 74.31 74.25 74.11 73.75 73.67 73.45 73.23 73.05 72.89 72.92 73.08 72.99 72.99 72.9 72.93 73.02 72.83 72.66 72.55 72.47 72.25 72.22 72.15 72.13 71.94 71.94 71.87 71.82 71.8 71.85 71.77 71.78 71.72 71.53 71.6 71.52 71.33 71.14 70.88 70.8 70.76 70.37 70.02 69.8 69.9 69.81 69.18 69.07 68.9 68.6 68.5 68.53 68.38 68.22 68.19 68.15 68.08 67.89 67.76 67.77 67.84 67.66 67.61 67.55 67.41 67.33 67.27 67.23 67.22 67.31 67.51 67.56 67.33 67.1 66.77 66.63 66.67 66.51 66.45 66.29 66.19 66.07 65.97 65.95 65.67 65.61 65.42 65.28 65.23 65.27 65.03 65.19 64.87 64.68 64.36 64.65 64.25 64.07 64.04 63.93 63.86 63.6 63.62 63.45 63.78 63.65 63.45 63.22 62.87 62.74 62.97 62.44 62.49 62.51 62.62 62.24 62.2 62.24 62.27 61.95 61.9 61.86 61.86 61.93 62.03 61.94 62.13 62.15 62 62.08 62 61.85 61.99 62.19 62 62.12 61.88 61.93 62.04 62.01 62.02 62.02 61.99 61.94 61.9 61.82 61.7 61.7 61.71 61.7 61.73 61.71 61.75 61.77 61.9 61.85 61.78 61.55 61.21 61.58 61.59 61.49 61.01 61.04 60.86 60.74 60.69 61.88 61.41 61.58 61.51 61.48 61.73 61.49 61.47 61.7 61.65 61.51 61.54 61.42 61.4 61.39 61.38 61.06 61.04 60.82 60.88 60.79 60.8 60.79 60.69 60.77 60.84 60.94 60.95 61.07 61.23 61.21 61.4 61.01 61.01 60.85 60.86 60.78 60.58 60.67 60.7 60.7 60.61 60.69 60.54 60.51 60.52 60.56 60.59 60.65 60.68 60.73 60.67 60.66 60.67 60.72 60.69 60.93 60.92 60.82 60.69 60.15 60.07 58.9 58.88 58.99 59.34 60.44 60.48 60.48 60.39 60.36 60.36 60.32 60.32 60.37 60.4 60.2 60.02 59.79 59.47 58.84 58.68 58.71 58.67 58.16 57.54 57.41 57.49 56.57 55.79 55.13 53.72 52.75 52.69 52.6 52.54 52.56 52.56 52.56 52.56 52.57 52.58 52.58 52.59 52.6 52.6 54.7 55.09 55.1 55.32 56.17 56.35 56.44 56.36 56.09 56.94 57.13 57.52 57.09 57.02 56.96 56.71 56.51 56.48 56.56 56.55 56.43 56.2 56.22 56.33 56.4 56.29 56.23 56.34 56.41 57.23 57.51 56.34 56.44 56.52 56.6 56.81 56.81 56.68 56.64 56.54 56.43 56.32 56.22 56.2 56.25 56.28 56.37 56.42 56.76 57.33 56.27 56.14 56.53 56.47 56.56 56.46 56.52 56.55 56.54 56.55 56.46 56.5 56.56 56.5 56.48 56.75 56.71 56.75 56.76 56.8 56.72 56.8 56.81 56.75 56.82 56.77 56.71 56.5 56.59 56.62 56.69 56.73 56.11 57.23 56.79 56.9 57.01 57.09 57.01 -9999 -9999 -9999 -9999 -9999 -9999 -9999 -9999 -9999
-9999 -9999 -9999 -9999 75.71 75.63 75.63 75.67 75.7 75.75 75.76 75.76 75.81 75.79 75.79 75.81 75.82 75.78 75.8 75.79 75.79 75.87 75.89 75.86 75.84 75.96 75.92 75.75 75.68 75.72 75.64 75.71 75.76 75.87 75.67 75.67 75.53 75.38 75.3 75.15 75.13 75.06 75.05 75.09 74.92 75.01 75.05 74.94 74.9 74.89 74.91 74.91 74.85 74.75 74.8 74.8 74.76 74.77 74.73 74.65 74.65 74.6 74.54 74.65 74.65 74.58 74.58 74.59 74.61 74.46 74.13 73.81 73.67 73.5 72.95 72.86 72.92 72.88 72.8 72.81 72.88 72.88 72.97 73.03 72.99 72.81 72.49 72.47 72.22 72.2 72.19 72.19 71.93 71.85 71.84 71.8 71.76 71.79 71.68 71.67 71.66 71.56 71.52 71.51 71.29 71.04 70.81 70.63 70.6 70.13 70.05 70.62 69.66 69.53 69.74 69.12 68.95 68.73 68.53 68.38 68.28 68.21 68.09 68 67.93 67.83 67.83 67.64 67.93 67.49 67.65 67.56 67.4 67.31 67.23 67.23 67.2 67.43 67.49 67.63 67.38 67.16 66.7 66.64 66.63 66.49 66.35 66.27 66.19 66.09 65.98 65.92 65.72 65.61 65.47 65.29 65.22 65.17 65.06 64.91 64.83 64.72 64.41 64.31 64.31 64.2 63.96 63.9 63.68 63.57 63.59 63.43 63.59 63.52 63.29 62.97 62.76 62.7 62.77 62.65 62.51 62.5 62.47 62.5 62.22 62.39 62.14 61.97 61.75 61.78 61.85 61.91 61.93 62.02 62.06 61.98 61.95 62.05 61.89 61.81 61.92 62.13 61.98 62.26 62.11 62.05 62.23 62.22 62.12 62.11 62.1 62.06 62.12 61.99 61.98 61.99 61.95 61.93 61.75 61.74 61.81 61.73 61.88 61.92 61.85 61.72 60.9 61.54 61.52 60.98 61.38 61.1 61.46 60.98 61.01 61.37 61.79 61.54 61.57 61.59 61.45 61.47 61.45 61.51 61.61 61.54 61.42 61.4 61.33 61.34 61.34 61.11 61.01 60.97 61.02 60.93 60.77 60.62 60.62 60.62 60.63 60.71 60.84 60.82 60.97 61.03 61.06 61.2 60.9 60.99 60.89 60.82 60.55 60.63 60.75 60.73 60.58 60.61 59.15 59.27 59.33 60.51 60.51 60.52 60.53 60.55 60.63 60.68 60.69 60.7 60.87 61.12 60.84 60.81 60.73 60.82 60.77 60.48 59.37 58.87 59.16 60.62 60.57 60.5 60.43 60.36 60.31 60.28 60.12 59.98 58.26 58.55 58.55 59.57 59.5 60.37 59.15 58.55 58.12 57.95 57.55 57.24 57.05 56.36 56.02 55.5 53.79 52.94 52.79 52.67 52.55 52.54 52.54 52.55 52.56 52.57 52.58 52.58 52.59 52.6 53.44 55.36 55.14 55.24 55.82 56.08 56.3 56.3 56.29 56.36 57.29 57.38 57.03 56.99 56.99 56.93 56.8 56.56 56.6 56.59 56.67 56.38 56.28 56.26 56.29 56.29 56.3 56.28 56.43 56.73 57.59 57.13 56.36 56.37 56.44 56.55 56.75 56.84 56.68 56.55 56.26 56.3 56.29 56.22 56.2 56.24 56.34 56.44 56.55 57.36 57.44 56.34 56.23 56.23 56.51 56.51 56.45 56.53 56.55 56.5 56.52 56.58 56.53 56.57 56.53 56.46 56.58 56.73 56.75 56.8 56.76 56.77 56.79 56.81 56.77 56.81 56.69 56.68 56.63 56.61 56.61 56.69 56.64 56.48 57.14 57.03 57.37 57.06 57.08 57.07 -9999 -9999 -9999 -9999 -9999 -9999 -9999 -9999 -9999
-9999 -9999 -9999 -9999 75.64 75.66 75.64 75.66 75.65 75.65 75.7 75.7 75.82 75.88 75.91 75.91 75.89 75.83 75.79 75.85 75.86 75.89 75.84 75.73 75.86 75.77 75.83 75.75 75.74 75.75 75.69 75.79 75.78 75.77 75.66 75.56 75.47 75.33 75.23 75.2 75.04 75.13 74.91 75.02 74.96 74.87 74.82 74.85 74.82 74.94 74.98 74.88 74.9 74.89 74.81 74.78 74.77 74.73 74.71 74.64 74.61 74.62 74.54 74.64 74.65 74.6 74.53 74.41 74.44 74.3 73.99 73.83 73.65 73.18 72.96 72.88 73.01 72.94 72.86 72.78 72.8 72.86 72.94 72.99 72.92 72.61 72.48 72.42 72.26 72.24 72.27 72.19 71.87 71.86 71.89 71.77 71.84 71.78 71.73 71.73 71.61 71.54 71.53 71.55 71.36 71.07 70.74 70.66 70.53 70.17 69.92 70.23 69.72 69.36 69.15 69 68.84 68.56 68.5 68.44 68.36 68.23 68.06 68.03 67.89 67.89 67.82 67.82 67.82 67.71 67.71 67.69 67.4 67.3 67.28 67.28 67.25 67.35 67.32 67.4 67.17 67.28 66.67 66.67 66.6 66.65 66.43 66.29 66.22 66.15 66.06 65.95 65.7 65.62 65.44 65.3 65.25 65.22 65.04 64.88 64.79 64.68 64.41 64.4 64.3 64.17 63.86 63.79 63.64 63.5 63.57 63.39 63.42 63.35 63.06 62.92 62.72 62.65 62.73 62.67 62.49 62.43 62.42 62.22 62.28 62.21 62.02 62 61.81 61.73 61.87 61.91 62.27 62.06 62.01 61.95 61.94 61.93 61.87 61.69 61.84 61.9 62.28 62.31 62.06 62.14 62.2 62.3 62.27 62.13 62.11 62.09 62.2 62.2 62.01 62.22 62.19 61.96 61.99 61.76 61.8 61.86 61.85 61.92 61.82 61.26 61.53 61.54 61.54 61.4 61.59 61.6 61.54 61.5 61.51 61.62 61.77 61.5 61.59 61.71 61.48 61.42 61.44 61.44 61.52 61.44 61.36 61.32 61.27 61.29 61.32 61.27 61.13 61.26 61.14 61.01 60.71 60.52 60.53 60.63 60.61 60.68 60.8 60.76 60.82 60.94 60.82 60.77 60.92 61.02 61.13 60.99 60.62 60.67 60.75 60.73 60.79 60.53 59.19 59.19 59.18 59.24 59.15 59.09 59.38 60.49 60.49 60.58 60.7 60.68 60.8 60.71 60.71 60.71 60.78 60.82 60.83 60.81 60.73 60.79 60.74 60.62 60.58 60.54 60.4 60.36 60.26 60.02 59.68 59.26 58.39 58.16 57.81 58.6 60.77 61.71 59.13 58.75 58.7 57.9 57.49 57.09 56.75 56.38 55.98 55.73 54.7 53.64 52.74 52.74 52.64 52.53 52.55 52.56 52.57 52.58 52.59 52.59 52.6 52.83 53.9 56.13 55.7 55.48 55.97 56.28 56.26 56.37 56.2 56.36 57.41 57.83 56.97 57.02 56.97 56.84 56.74 56.68 56.67 56.63 56.55 56.48 56.34 56.32 56.3 56.31 56.36 56.35 56.49 56.68 57.57 57.3 56.54 56.33 56.4 56.46 56.45 56.48 56.37 56.24 56.29 56.3 56.4 56.26 56.13 56.22 56.32 56.49 56.64 57.25 57.13 56.18 56.2 56.43 56.48 56.46 56.5 56.6 56.61 56.6 56.5 56.55 56.58 56.48 56.53 56.57 56.56 56.7 56.69 56.7 56.74 56.8 56.8 56.78 56.86 56.7 56.71 56.76 56.66 56.63 56.66 56.54 56.61 56.78 56.69 57.15 57.15 57.2 56.99 57.06 -9999 -9999 -9999 -9999 -9999 -9999 -9999 -9999 -9999
-9999 -9999 -9999 -9999 75.83 75.9 75.92 75.87 75.71 75.79 75.75 75.79 75.93 75.9 75.87 75.85 75.87 75.76 75.74 75.88 75.85 75.89 75.82 75.83 76.1 75.88 76.07 75.85 75.81 75.82 75.7 75.79 75.81 75.82 75.65 75.54 75.47 75.31 75.19 75.31 75.02 74.97 74.92 74.95 74.94 74.79 74.76 74.77 74.89 74.97 75.04 74.97 74.92 74.85 74.95 74.77 74.76 74.76 74.7 74.73 74.64 74.65 74.65 74.55 74.67 74.69 74.6 74.48 74.2 74.11 73.98 73.96 73.63 73.08 72.95 72.86 72.93 72.93 72.91 72.86 72.9 72.86 72.91 72.99 72.76 72.81 72.48 72.43 72.27 72.19 72.2 72.21 72.2 71.83 71.9 71.93 71.86 71.79 71.66 71.72 71.59 71.56 71.53 71.57 71.59 71.23 70.85 70.66 70.85 70.11 69.86 69.83 69.51 69.35 69.16 69.02 68.73 68.56 68.45 68.37 68.31 68.16 68.05 67.84 67.86 67.85 67.74 67.67 67.61 67.43 67.47 67.4 67.35 67.32 67.31 67.24 67.15 67.19 67.24 67.27 67.24 66.94 66.69 66.67 66.61 66.59 66.45 66.34 66.28 66.14 66.07 66.01 65.72 65.58 65.51 65.31 65.18 65.14 64.99 64.83 64.79 64.69 64.33 64.23 64.12 64.24 63.82 63.75 63.6 63.53 63.56 63.39 63.42 63.36 63.02 62.9 62.7 62.67 62.8 62.54 62.48 62.47 62.3 62.26 62.13 62.08 62.61 61.85 61.77 61.77 61.91 62.21 62.41 62.17 62.04 61.96 61.92 61.94 61.75 61.75 61.83 61.87 62.25 62.21 62.21 62.13 62.14 62.2 62.21 62.11 62.13 62.16 62.2 62.16 62.05 62.2 62.12 61.94 61.87 61.75 61.83 61.93 61.86 61.76 61.8 61.38 61.56 61.57 61.48 61.51 61.49 61.55 61.53 61.48 61.54 61.51 61.67 61.54 61.56 61.75 61.59 61.63 62.08 61.87 61.41 61.3 61.3 61.22 61.25 61.17 61.23 61.21 61.05 61.29 61.13 61.06 60.73 60.51 60.54 60.55 60.62 60.55 60.63 60.68 60.82 60.83 60.69 60.78 60.75 60.75 60.81 60.72 60.65 60.76 60.74 60.75 60.75 59.39 59.25 59.21 59.23 59.24 59.27 59.17 59.19 59.29 59.46 60 60.5 60.5 60.54 60.55 60.67 60.61 60.86 60.89 61.06 60.86 60.81 60.77 60.76 60.69 60.55 60.51 60.34 60.37 60.22 59.75 60.59 60.36 59.58 58.35 57.83 57.77 60.36 61.19 59.18 58.84 58.4 57.96 57.67 57.34 56.63 56.34 56 55.57 54.95 54.27 52.64 52.73 52.55 52.61 52.63 52.55 52.57 52.58 52.59 52.6 52.62 52.73 54.19 56.57 56.22 55.93 55.96 56.32 56.22 56.3 56.31 56.4 57.79 57.89 57.15 57.09 57.03 56.86 56.83 56.73 56.62 56.58 56.55 56.37 56.34 56.25 56.39 56.28 56.26 56.23 56.21 56.59 57.69 57.62 56.48 56.28 56.31 56.24 56.25 56.24 56.23 56.23 56.31 56.37 56.25 56.4 56.21 56.24 56.36 56.46 56.62 56.76 56.61 56.31 56.27 56.44 56.41 56.47 56.51 56.53 56.56 56.6 56.54 56.58 56.52 56.54 56.54 56.46 56.49 56.73 56.7 56.76 56.77 56.78 56.79 56.82 56.81 56.84 56.77 56.69 57 57.11 57.08 56.99 56.76 57.37 57.7 57.39 57.19 57.01 57.1 57.06 -9999 -9999 -9999 -9999 -9999 -9999 -9999 -9999 -9999
-9999 -9999 -9999 -9999 76.06 76.1 76.06 76.01 75.86 75.9 75.85 75.87 75.86 75.95 75.9 75.82 75.84 75.79 75.75 75.79 75.82 75.84 75.85 75.82 75.87 75.84 75.77 75.77 75.83 75.72 75.7 75.75 75.87 75.88 75.54 75.45 75.43 75.31 75.15 75.17 74.99 74.95 74.84 74.87 74.91 74.82 74.79 74.84 74.83 74.99 75.1 75.06 74.86 74.86 74.82 74.76 74.81 74.8 74.75 74.67 74.7 74.65 74.63 74.5 74.39 74.59 74.6 74.5 74.24 74.18 74.08 73.92 73.7 73.6 73.39 73.22 73.16 73.11 73.1 72.8 73.04 72.92 72.95 73.02 72.86 72.83 72.5 72.48 72.32 72.27 72.27 72.22 72.24 72.02 71.93 71.87 71.8 71.8 71.68 71.72 71.63 71.56 71.49 71.58 71.43 71.18 70.93 70.74 70.62 70.32 69.81 69.8 69.48 69.25 69.16 68.92 68.69 68.5 68.47 68.37 68.18 68.19 68.09 68.02 67.96 67.8 67.79 67.67 67.88 67.91 67.37 67.56 67.48 67.33 67.32 67.32 67.27 67.38 67.25 67.25 67.21 66.98 66.74 66.65 66.63 66.59 66.44 66.29 66.33 66.13 66.08 65.92 65.68 65.57 65.67 65.73 65.53 65.13 64.94 64.77 64.35 64.51 64.39 64.25 64.3 64.11 63.89 63.7 63.62 63.47 63.64 63.45 63.48 63.25 62.98 62.82 62.77 62.69 62.67 62.56 62.48 62.45 62.24 62.23 62.04 62.14 61.92 61.78 61.79 61.8 62 62.08 62.2 62.2 61.95 61.95 61.96 61.87 61.71 61.71 61.78 61.89 62.18 62.21 62.14 62.14 62.28 62.16 62.13 62.06 62.03 62.02 61.91 62.32 62.16 62.07 62.01 61.89 61.95 61.81 61.81 61.96 61.74 61.77 61.99 61.29 61.58 61.56 61.52 61.3 61.5 61.6 61.7 61.67 61.61 61.59 61.62 61.61 61.55 62.36 63.4 63.37 63.68 62.73 61.47 61.48 61.31 61.31 61.33 61.24 61.22 61.27 61.46 61.31 61.14 61.07 61.18 60.99 60.84 60.67 60.43 60.58 60.73 60.71 60.75 60.88 60.67 60.8 60.65 60.71 60.8 60.71 60.62 60.76 60.56 60.05 59.86 59.29 59.26 59.21 59.26 59.23 59.32 59.28 59.22 59.6 59.56 59.58 60.51 60.46 60.46 60.58 60.64 60.61 60.56 60.57 60.66 60.66 60.71 60.91 60.84 60.68 60.57 60.45 60.33 60.45 60.3 60.12 59.76 59.31 59.08 58.35 57.95 57.75 59.58 61.53 59.74 58.72 58.3 58.07 57.78 57.69 57.03 56.21 55.98 55.41 54.73 54.22 52.56 52.54 52.56 52.57 52.62 52.67 52.64 52.57 52.58 52.6 52.61 52.8 54.28 56.35 56 56.24 56.13 56.17 56.39 56.36 56.34 56.37 57.81 57.7 56.84 57.04 56.99 56.89 56.88 56.57 56.55 56.6 56.56 56.33 56.3 56.38 56.34 56.29 56.32 56.34 56.29 56.58 58.06 57.75 56.45 56.2 56.17 56.24 56.23 56.15 56.13 56.21 56.34 56.46 56.2 56.25 56.33 56.42 56.39 56.49 56.75 57 56.24 56.24 56.07 56.12 56.47 56.51 56.37 56.61 56.51 56.54 56.51 56.6 56.53 56.56 56.54 56.51 56.46 56.8 56.66 56.8 56.71 56.83 56.79 56.69 56.79 56.78 57.06 56.98 57.2 57.34 57.06 56.58 57.25 57.38 57.62 57.49 57.32 57.59 57.05 57.03 -9999 -9999 -9999 -9999 -9999 -9999 -9999 -9999 -9999
-9999 -9999 -9999 -9999 76.02 76.05 76.03 75.96 75.91 75.89 75.91 75.9 75.87 75.95 75.96 75.84 75.8 75.79 75.77 75.73 75.83 75.81 75.81 75.83 75.99 75.91 75.88 75.78 75.82 75.76 75.68 75.93 75.88 75.79 75.51 75.42 75.47 75.31 75.16 75.19 75.06 74.94 74.95 74.86 74.8 74.88 74.97 74.91 74.96 74.92 74.96 75.17 75 74.92 74.72 74.64 74.77 74.79 74.76 74.65 74.66 74.62 74.66 74.65 74.38 74.4 74.61 74.54 74.45 74.29 74.13 73.94 73.79 73.65 73.62 73.44 73.47 73.46 73.29 72.81 72.99 72.92 73 73.03 72.95 72.76 72.51 72.49 72.37 72.29 72.29 72.26 72.2 72.01 72.02 71.99 71.83 71.77 71.78 71.77 71.78 71.5 71.46 71.38 71.23 71.13 71 70.88 70.94 70.17 69.89 69.77 69.53 69.31 69.13 68.94 68.7 68.47 68.3 68.23 68.19 68.18 68.15 68.01 67.87 67.86 67.75 67.73 67.69 67.44 67.3 67.28 67.27 67.36 67.36 67.31 67.25 67.19 67.19 67.18 67.11 66.95 66.84 66.71 66.61 66.58 66.75 66.22 66.14 66.03 65.97 65.92 65.65 65.64 65.98 65.7 65.51 65.17 64.88 64.8 64.72 64.59 64.43 64.59 64.1 63.87 63.67 63.67 63.51 63.45 63.55 63.65 63.38 63.21 63.04 62.86 62.74 62.75 62.75 62.59 62.46 62.41 62.27 62.24 62.1 62.01 61.89 61.81 61.76 61.78 62.01 62.06 62.03 61.99 61.88 61.89 61.84 61.94 61.67 61.66 61.77 61.85 62.17 62.05 62.16 62.22 62.24 62.16 62.19 62.07 62.06 62.01 61.96 62.1 62.03 62.07 61.96 61.9 61.9 61.84 61.78 61.96 61.76 61.71 61.76 61.02 61.53 61.57 61.12 61.41 61.41 61.63 61.57 61.63 61.69 61.84 61.73 61.67 61.8 61.71 61.45 61.45 61.67 61.88 61.69 61.6 61.42 61.29 61.35 61.24 61.08 61.45 61.59 61.57 61.15 61.12 61.26 61.11 60.99 61.01 60.91 60.9 60.8 60.71 60.7 60.71 60.78 60.74 60.7 60.81 60.65 60.69 60.67 60.78 60.76 60.81 59.73 59.32 59.29 59.27 60.09 60.03 59.4 59.31 59.31 59.63 59.59 59.28 60.33 60.39 60.46 60.55 60.54 60.57 60.3 60.26 60.2 60.21 60.28 60.53 60.54 60.81 60.86 60.38 60.3 60.28 60.04 59.8 61.29 59.37 58.25 58.11 58.13 58.04 59.42 60.96 60.1 59.02 58.3 58.09 57.87 57.62 56.7 56.13 55.85 55.11 54.8 53.84 52.75 52.57 52.58 52.6 52.61 52.63 52.68 52.68 52.64 52.59 52.6 52.96 54.34 56.06 55.89 56.16 56.3 56.5 56.43 56.69 56.37 56.52 57.6 57.26 56.91 57.06 57.03 56.91 56.88 56.67 56.65 56.49 56.49 56.22 56.26 56.25 56.29 56.26 56.3 56.26 56.25 56.69 57.85 57.76 56.39 56.23 56.23 56.22 56.12 56.24 56.36 56.36 56.42 56.29 56.33 56.3 56.25 56.38 56.5 56.63 56.93 57.29 56.53 56.52 56.51 56.39 56.58 56.53 56.45 56.58 56.59 56.54 56.63 56.53 56.52 56.57 56.62 56.51 56.54 56.87 56.75 56.75 56.76 56.76 56.8 56.78 56.76 57.27 57.77 57.62 57.35 57.04 57.14 57.25 57.31 57.41 57.79 58.02 57.62 57.4 57.28 56.99 -9999 -9999 -9999 -9999 -9999 -9999 -9999 -9999 -9999
-9999 -9999 -9999 -9999 75.99 76.04 76 75.98 75.94 75.93 75.93 75.93 76.09 76.09 76.06 75.9 75.8 75.73 75.72 75.75 75.88 75.83 75.84 75.97 75.8 75.93 75.92 75.82 75.7 75.76 75.67 75.74 75.67 75.66 75.48 75.38 75.41 75.31 75.21 75.13 75.07 74.84 74.82 74.74 74.91 74.85 75.04 74.99 74.82 74.69 74.87 75.06 75.07 74.94 74.66 74.64 74.74 74.7 74.79 74.67 74.66 74.63 74.66 74.51 74.36 74.35 74.34 74.58 74.28 74.23 74.12 74.09 73.79 73.66 73.77 73.63 73.69 73.85 73.48 72.89 73.05 72.96 72.96 72.99 72.95 73.13 72.62 72.7 72.39 72.38 72.41 72.22 72.15 71.96 71.92 71.87 71.81 71.78 71.74 71.81 71.9 71.53 71.44 71.4 71.22 71.14 70.99 70.92 70.84 70.2 69.88 69.82 69.59 69.37 69.14 68.96 68.77 68.61 68.5 68.33 68.3 68.19 68.14 68.11 68 68.01 67.9 67.82 67.75 67.63 67.47 67.48 67.41 67.45 67.46 67.34 67.35 67.26 67.3 67.29 67.27 67.13 66.84 66.74 66.63 66.56 66.47 66.24 66.17 66.04 65.95 65.79 65.66 65.69 65.75 65.78 65.55 65.16 64.89 64.84 64.78 64.65 64.54 64.28 64.18 63.99 63.95 63.83 63.73 63.58 63.59 63.35 63.06 62.95 62.94 62.87 62.76 62.84 63.03 62.54 62.47 62.41 62.35 62.25 62.19 62.15 61.9 61.86 61.79 61.79 62.05 62.06 61.97 61.97 61.96 61.86 61.82 61.8 61.64 61.67 61.73 61.81 62.08 62.04 62.12 62.26 62.22 62.12 62.16 62.05 61.99 61.97 62.08 62.02 61.97 61.97 61.94 61.95 61.85 61.89 61.94 61.94 61.68 61.66 61.39 61.42 61.5 61.51 60.99 61.5 61.37 61.37 61.45 61.65 61.73 61.81 61.58 61.61 61.77 61.36 61.61 61.58 61.51 61.65 61.64 61.58 61.45 61.33 61.26 61.2 61.42 61.5 61.52 61.56 61.31 61.27 61.29 61.2 61.15 61.05 61.08 60.89 60.93 60.97 60.93 60.75 60.81 60.74 60.66 60.61 60.78 60.7 60.7 60.85 60.74 60.78 60.41 59.27 59.29 59.32 60.03 60.09 60.18 59.83 59.53 59.67 59.56 59.33 60.37 60.46 60.54 60.55 60.5 60.4 60.18 59.93 59.93 59.87 60.01 60.18 60.32 60.57 60.79 60.28 60.25 60.06 59.79 59.65 59.64 58.15 57.67 57.86 57.68 59.48 60.96 61.49 60.32 58.72 58.21 58.19 58.07 57.75 56.66 55.91 55.54 54.97 54.64 53.7 52.58 52.59 52.61 52.62 52.64 52.65 52.67 52.69 52.72 52.68 52.64 53.3 54.51 56.18 56.05 56.21 56.44 56.36 56.8 56.67 57.62 57.52 57.23 57.15 57.08 57.14 57.02 56.98 56.73 56.62 56.59 56.63 56.43 56.22 56.25 56.22 56.23 56.21 56.19 56.09 56.2 56.6 58.39 57.6 56.46 56.16 56.16 56.29 56.26 56.26 56.24 56.26 56.34 56.29 56.16 56.25 56.22 56.36 56.56 56.68 56.95 56.9 56.53 56.62 56.46 56.62 56.58 56.5 56.54 56.56 56.52 56.6 56.55 56.57 56.48 56.51 56.53 56.55 56.53 56.81 56.88 56.89 56.74 56.75 56.8 56.79 56.75 57.82 57.92 57.39 57.07 57.26 57.37 57.24 57.24 57.36 57.78 58.14 57.98 57.36 57.05 57.04 -9999 -9999 -9999 -9999 -9999 -9999 -9999 -9999 -9999
-9999 -9999 -9999 -9999 75.97 76.05 76.05 75.99 75.96 75.99 75.95 75.92 75.94 75.97 76.01 76.05 75.82 75.68 75.63 75.71 75.84 75.82 75.9 75.86 75.93 75.76 75.94 75.83 75.84 75.88 75.67 75.71 75.65 75.57 75.46 75.4 75.37 75.28 75.18 75.08 75 74.88 74.79 74.81 74.93 74.86 74.85 75.06 74.89 74.6 74.91 75.08 75.18 75.01 74.6 74.8 74.62 74.66 74.75 74.7 74.68 74.7 74.65 74.51 74.4 74.35 74.36 74.36 74.39 74.35 74.31 74.22 73.91 73.73 73.82 73.82 73.76 73.89 73.96 72.73 73.02 72.98 73.02 73 72.96 72.74 72.72 72.66 72.41 72.47 72.45 72.25 72.12 72.03 71.94 71.84 71.97 71.83 71.66 71.77 71.74 71.52 71.48 71.36 71.31 71.18 71.03 70.96 70.91 70.34 69.92 70.09 69.64 69.39 69.24 69.06 68.91 68.71 68.6 68.49 68.34 68.2 68.14 68.04 67.95 67.77 67.61 67.63 67.58 67.75 67.58 67.51 67.5 67.47 67.48 67.54 67.43 67.53 67.46 67.32 67.2 67.07 66.78 66.59 66.51 66.42 66.3 66.16 66.1 65.96 65.86 65.79 65.64 65.74 65.76 65.7 65.5 65.23 65.08 64.9 64.83 64.64 64.62 64.32 64.12 63.97 63.97 63.8 63.76 63.58 63.51 63.33 63.16 63.04 62.94 62.96 62.9 62.88 62.81 62.63 62.52 62.48 62.52 62.26 62.14 62.18 61.95 61.87 61.85 61.8 62.01 62.07 61.94 61.93 61.96 61.84 61.9 61.8 61.67 61.73 61.75 61.8 62.05 62.04 62.1 62.11 62.12 62.06 62.12 61.98 62.01 62 62.02 62.21 62.17 61.97 62 62.01 61.79 61.87 62.03 61.67 61.74 61.66 61.51 61.58 61.52 61.49 61.35 61.43 61.35 61.38 61.35 61.54 61.76 61.76 61.59 61.6 61.99 61.68 61.67 61.65 61.57 61.61 61.63 61.62 61.57 61.51 61.31 61.25 61.45 61.54 61.48 61.48 61.35 61.38 61.29 61.24 60.98 60.93 60.84 61.07 60.72 60.98 60.85 60.79 60.83 60.74 60.6 60.57 60.71 60.84 60.8 60.92 60.84 60.89 59.46 59.28 59.31 59.39 60.06 59.96 60.08 59.47 59.71 59.71 59.62 60.12 60.43 60.41 60.44 60.53 60.44 60.4 60.19 59.95 59.95 59.93 59.83 60.09 60.2 60.56 60.31 60.14 60.26 60.08 59.69 59.74 59.75 59.99 57.52 57.79 57.93 58.59 60.07 60 60.72 58.55 58.26 58.29 58.16 58.4 57.4 55.83 55.5 55.01 54.63 53.18 52.6 52.62 52.63 52.65 52.66 52.68 52.7 52.71 52.73 52.75 52.72 53.51 54.75 56.04 56.17 56.28 56.42 56.88 57.21 57.18 57.74 57.43 57.77 57.2 57.1 57.1 57 56.77 56.57 56.52 56.53 56.44 56.35 56.34 56.26 56.13 56.16 56.1 56.05 56.05 56.17 56.63 58.49 57.63 56.5 56.44 56.26 56.28 56.27 56.21 56.18 56.22 56.29 56.33 56.22 56.16 56.25 56.44 56.47 56.77 56.4 56.53 56.96 57.04 56.63 56.64 56.63 56.56 56.46 56.42 56.51 56.6 56.61 56.52 56.51 56.53 56.49 56.58 56.54 56.65 56.74 56.75 56.77 56.72 56.74 56.79 56.76 57.61 57.23 57.03 57.1 57.22 57.35 57.23 57.31 57.23 57.25 57.31 57.95 57.53 57.56 -9999 -9999 -9999 -9999 -9999 -9999 -9999 -9999 -9999 -9999
-9999 -9999 -9999 75.98 76.03 76.04 76.08 76.05 76.01 76.01 76 76 76.01 76.02 76.03 76.03 75.91 75.67 75.65 75.67 75.74 75.81 75.82 75.82 75.91 75.79 75.65 75.73 75.89 75.74 75.65 75.46 75.39 75.34 75.33 75.49 75.38 75.24 75.14 75.14 75.04 74.87 74.86 74.86 74.82 74.85 74.68 75 74.84 74.62 74.89 74.98 75.07 74.94 74.76 74.62 74.56 74.57 74.63 74.68 74.69 74.65 74.63 74.64 74.39 74.39 74.34 74.35 74.45 74.23 74.31 74.3 74.04 73.77 73.84 73.84 73.82 73.88 73.57 72.96 72.95 72.94 72.96 72.96 72.94 72.63 72.66 72.53 72.53 72.3 72.45 72.57 72.35 72.11 72.08 72.1 71.87 71.89 71.74 71.82 71.85 71.55 71.51 71.36 71.25 71.21 71.15 71.05 70.91 70.46 70.12 69.83 69.56 69.29 69.09 68.94 68.77 68.71 68.54 68.46 68.38 68.24 68.11 67.98 67.73 67.65 67.69 67.48 67.74 67.68 67.61 67.66 67.84 67.54 67.42 67.29 67.32 67.66 67.6 67.39 67.62 66.93 66.81 66.68 66.59 66.48 66.31 66.31 66.26 66.21 66.04 65.94 65.65 65.74 65.79 65.63 65.56 65.29 65.01 64.94 64.86 64.83 64.66 64.35 64.12 64 63.97 63.84 63.72 63.57 63.48 63.42 63.23 63.1 62.98 63.23 62.89 63.1 62.97 62.69 62.57 62.41 62.42 62.2 62.13 62.09 61.99 61.94 61.85 62.06 62 61.95 61.96 62 61.94 61.9 61.86 61.78 61.75 61.76 61.79 61.86 62.1 62.23 62.44 62.22 62.02 62.04 61.98 62.06 62.01 62.02 61.95 61.99 62.03 62.09 61.88 61.96 61.84 61.84 61.97 61.62 61.69 61.64 61.39 61.52 61.51 61.51 61.43 61.3 61.36 61.26 61.32 61.29 61.44 61.74 61.65 61.76 62.36 61.67 61.67 61.65 61.65 61.62 61.6 61.61 61.61 61.39 61.27 61.42 61.51 61.55 61.44 61.39 61.06 61.45 61.25 61 60.95 61.09 61 60.89 60.98 61.08 61.12 60.86 60.92 60.85 60.74 60.68 60.77 60.86 60.88 60.8 60.89 60.87 60.45 59.99 59.37 59.39 59.89 59.95 59.84 59.69 59.69 59.61 59.46 60.48 60.43 60.36 60.56 60.53 60.49 60.29 59.99 59.94 60.08 59.94 59.96 60.11 60.36 60.6 60.19 60.1 60.07 59.89 60.34 59.74 59.73 59.67 59.13 59.06 59.31 60.45 59.49 59.73 61.97 60.11 58.37 58.29 58.29 58.46 57.07 55.93 55.7 54.75 54.71 52.93 52.61 52.62 52.64 52.66 52.6 52.58 52.61 52.64 52.67 52.7 52.73 53.61 55.19 55.96 56.17 56.36 56.53 56.78 57.22 57.19 57.11 57.3 57.25 57.01 57.29 57.3 56.98 56.86 56.67 56.68 56.52 56.44 56.39 56.36 56.26 56.19 56.16 56.24 56.2 56.22 56.26 56.74 58.75 57.82 56.42 56.34 56.23 56.25 56.27 56.2 56.23 56.26 56.27 56.29 56.25 56.22 56.34 56.45 56.63 56.55 56.66 56.69 56.61 56.38 56.7 56.93 56.97 56.57 56.53 56.55 56.46 56.55 56.55 56.46 56.5 56.53 56.51 56.45 56.54 56.54 56.8 56.75 56.73 56.66 56.64 56.71 56.75 56.95 56.95 57.19 57.22 57.36 57.25 57.11 57.23 57.35 57.42 57.38 57.71 57.53 57.08 -9999 -9999 -9999 -9999 -9999 -9999 -9999 -9999 -9999 -9999
-9999 -9999 -9999 75.98 76 76.02 76.15 76.22 76.14 76.11 76.17 76.1 76.07 76.26 76.08 76.08 75.93 75.64 75.59 75.65 75.79 75.86 75.77 75.81 75.78 75.72 75.67 75.78 75.63 75.78 75.84 75.51 75.5 75.38 75.42 75.45 75.41 75.32 75.09 75.09 75.05 74.93 74.97 74.75 74.66 74.81 74.63 74.61 74.63 74.61 74.8 74.88 74.86 74.77 74.71 74.5 74.55 74.6 74.58 74.67 74.7 74.65 74.61 74.74 74.47 74.46 74.4 74.4 74.46 74.4 74.41 74.33 74.18 73.81 73.78 73.85 73.7 73.57 73.43 73.01 72.91 72.88 72.93 72.98 72.81 72.98 72.81 72.68 72.61 72.36 72.38 72.3 72.32 72.21 72.13 72.33 71.9 71.95 71.78 72.24 71.8 71.59 71.51 71.4 71.32 71.31 71.14 70.79 70.63 70.34 70.08 69.81 69.71 69.46 69.2 69.02 68.95 68.79 68.62 68.49 68.35 68.25 68.16 68.1 67.85 67.79 67.66 67.47 67.51 67.7 67.63 67.67 67.61 67.39 67.45 67.3 67.3 67.64 67.67 67.44 67.06 66.96 66.76 66.57 66.55 66.43 66.29 66.38 66.43 66.33 66.02 65.81 65.66 65.65 65.45 65.31 65.41 65.25 65.07 65 64.97 64.97 64.85 64.3 64.18 64.05 63.97 63.86 63.79 63.63 63.66 63.49 63.24 63.25 63.04 63.04 62.97 63.06 62.85 62.58 62.54 62.36 62.35 62.22 62.17 62.05 61.99 61.95 61.86 61.81 61.79 62.05 62.04 61.88 62 61.86 61.8 61.73 61.78 61.73 61.82 62.12 61.94 62.17 61.94 62.03 62.01 61.92 61.96 61.97 62.04 61.95 61.96 61.96 62 62.02 62.06 61.92 61.92 61.82 62.13 61.69 61.7 61.47 60.99 61.52 61.54 61.13 61.27 61.25 61.26 61.29 61.32 61.28 61.24 61.67 61.68 61.73 61.56 61.69 61.65 61.58 61.59 61.59 61.62 61.63 61.63 61.47 61.38 61.42 61.56 61.58 61.5 61.18 61.18 61.19 61.05 61.04 61.09 61.1 61.08 61.03 60.93 60.96 61.04 61.06 60.93 60.84 60.62 60.89 60.94 60.94 60.89 60.95 60.92 60.75 60.6 60.52 60.49 60.37 60.51 59.82 59.76 59.74 59.66 59.6 59.31 60.43 60.27 60.27 60.55 60.49 60.62 60.24 59.98 59.96 60.02 60.11 60.01 60.39 60.36 60.42 60.18 60.11 60.12 59.92 59.64 60.05 59.72 59.67 59.75 59.81 59.61 59.43 59.5 59.91 61.12 60.25 58.59 58.44 58.43 58.46 57.6 55.98 55.92 54.78 53.87 52.71 52.62 52.61 52.64 52.65 52.66 52.68 52.7 52.72 52.74 52.64 52.54 53.59 54.99 56.12 56.21 56.48 56.44 57.07 57.44 57.11 57.09 57.2 57.74 57.34 56.92 57.12 57 56.96 56.85 56.74 56.6 56.37 56.3 56.32 56.3 56.24 56.14 56.23 56.25 56.34 56.33 56.61 58.66 57.75 56.5 56.28 56.23 56.21 56.22 56.2 56.19 56.25 56.29 56.34 56.37 56.43 56.45 56.57 56.8 56.68 56.71 56.68 56.7 56.68 56.64 56.65 56.44 57.18 57.12 56.63 56.48 56.5 56.58 56.56 56.55 56.59 56.55 56.55 56.54 56.48 56.85 57 56.92 57 57.11 57.18 57.34 57.38 57.18 57.17 57.26 57.38 57.22 56.59 56.75 57.02 57.29 57.27 57.33 57.25 56.94 -9999 -9999 -9999 -9999 -9999 -9999 -9999 -9999 -9999 -9999
-9999 -9999 -9999 75.96 75.99 76 76.07 76.18 76.11 76.2 76.16 76.16 76.11 76.2 76.1 76.02 75.96 75.64 75.65 75.72 75.84 75.79 75.81 75.79 75.75 75.66 75.54 75.6 75.65 75.54 75.61 75.55 75.68 75.4 75.51 75.52 75.45 75.24 75.19 75.03 75.08 74.92 75.01 74.76 74.67 74.65 74.65 74.62 74.58 74.52 74.74 74.89 74.81 74.74 74.65 74.57 74.6 74.58 74.58 74.69 74.68 74.64 74.63 74.67 74.63 74.6 74.57 74.55 74.66 74.53 74.48 74.43 74.25 73.87 73.78 73.79 73.69 73.53 73.5 73.05 72.99 73.06 72.98 72.9 72.97 72.73 72.84 72.82 72.78 72.67 72.54 72.52 72.22 72.1 72.28 72.24 72.23 72.07 71.93 71.77 71.58 71.43 71.39 71.35 71.27 71.16 71 70.78 70.59 70.37 70.22 70.03 69.73 69.5 69.3 69.18 68.96 68.88 68.66 68.47 68.32 68.22 68.16 67.99 67.85 67.8 67.69 67.52 67.67 67.7 67.68 67.77 67.73 67.58 67.44 67.33 67.25 67.9 67.84 67.85 67.09 66.94 66.71 66.49 66.41 66.29 66.25 66.35 66.39 66.4 65.93 65.91 65.63 65.37 65.36 65.23 65.12 65.27 65.1 65.03 65.02 65.09 64.96 64.35 64.11 64.08 64.01 63.87 63.8 63.67 63.56 63.46 63.24 63.31 62.99 62.96 62.95 62.9 62.82 62.59 62.54 62.44 62.33 62.26 62.16 62.05 61.96 62 61.95 61.8 61.77 61.87 61.83 61.79 61.82 61.8 61.64 61.65 61.73 61.9 62.06 62.03 61.89 61.94 61.94 61.93 61.96 61.97 61.94 62.06 61.91 62 61.99 61.95 61.96 62.05 62.07 61.87 61.91 61.95 61.81 61.56 61.62 61.41 61.29 61.52 61.52 61.04 61.38 61.26 61.28 61.23 61.17 61.18 61.5 61.66 61.67 61.76 61.78 61.81 61.7 61.59 61.58 61.58 61.57 61.6 61.57 61.56 61.67 61.72 61.69 61.66 61.56 60.96 60.55 61.35 60.98 60.99 61.13 61.28 61.15 61.08 60.96 60.91 60.92 61.15 61.04 60.93 60.76 61.08 60.97 61.03 60.89 60.93 60.87 60.7 60.9 60.76 60.52 60.48 60.54 60.71 60.53 60.53 59.82 59.67 60.45 60.27 60.23 60.34 60.58 60.51 60.39 60.26 60.05 59.96 59.95 60.01 60.08 59.97 60.26 60.59 60.17 60.19 60.1 60.19 59.84 59.86 59.77 59.7 59.69 59.05 59.63 59.94 59.51 59.39 60.68 59.5 58.68 58.69 58.76 58.7 57.86 56.05 55.76 54.58 53.5 52.67 52.66 52.65 52.64 52.62 52.63 52.66 52.69 52.7 52.72 52.75 53.07 53.55 55.32 56.19 56.17 56.32 56.17 57.27 57.15 57.08 57.13 56.89 57.74 57.56 56.86 56.97 57.09 56.98 56.94 56.83 56.49 56.35 56.24 56.13 56.1 56.15 56.19 56.18 56.22 56.32 56.29 56.54 58.5 57.31 56.51 56.24 56.12 56.21 56.36 56.19 56.23 56.31 56.32 56.48 56.42 56.45 56.5 56.67 56.5 56.7 56.74 56.63 56.71 56.68 56.69 56.6 56.9 56.94 56.69 56.72 57.15 56.94 56.57 56.53 56.5 56.52 56.5 56.57 56.49 56.6 56.96 57.22 57.46 57.34 57.12 57.24 57.24 57.24 57.16 57.35 57.48 57.37 57.14 57.03 56.67 56.66 56.58 56.76 56.89 56.99 57.22 -9999 -9999 -9999 -9999 -9999 -9999 -9999 -9999 -9999 -9999
-9999 -9999 -9999 76.03 76 75.98 75.97 76.14 76.09 76.16 76.13 76.13 76.1 76.19 76.07 75.99 75.94 75.68 75.63 75.83 75.9 75.93 75.76 75.65 75.76 75.76 75.53 75.5 75.42 75.48 75.47 75.5 75.65 75.44 75.58 75.49 75.49 75.38 75.12 75.14 74.99 74.76 74.82 74.74 74.75 74.69 74.65 74.66 74.62 74.58 74.65 74.82 74.83 74.75 74.72 74.54 74.63 74.56 74.64 74.62 74.7 74.62 74.61 74.66 74.67 74.66 74.62 74.63 74.58 74.61 74.5 74.47 74.24 73.99 73.92 73.7 73.41 73.11 73.12 73.04 72.85 72.85 72.9 72.98 72.95 73 72.93 72.89 72.82 72.78 72.53 72.46 72.34 72.76 72.65 72.26 72.11 72.18 71.95 71.68 71.41 71.47 71.39 71.33 71.4 71.09 71.02 70.78 70.61 70.39 70.34 70.04 69.84 69.62 69.38 69.19 69.08 68.88 68.77 68.57 68.44 68.27 68.14 68.05 67.94 67.81 67.75 67.59 67.85 67.67 67.69 67.63 67.93 67.54 67.44 67.21 67.32 67.19 67.16 67.1 67.11 66.83 66.61 66.38 66.35 66.24 66.2 66.35 66.33 66.31 65.9 65.92 65.63 65.44 65.37 65.28 65.16 65.14 65.35 65.36 65.33 65.36 65.13 64.34 64.17 64.08 63.98 63.89 63.81 63.7 63.62 63.41 63.34 63.22 63.06 62.97 62.96 62.91 62.78 62.59 62.53 62.41 62.35 62.25 62.12 62.06 62.05 61.93 61.95 61.76 61.74 61.88 61.89 61.79 61.74 61.68 61.63 61.65 61.68 61.63 61.76 61.88 62.05 62.15 62.03 61.96 62.14 62.14 62.02 62.11 61.87 61.84 61.91 61.93 62 62.02 62.07 61.84 61.89 62.04 61.77 61.61 61.69 61.51 61.54 61.52 61.5 61.24 61.25 61.24 61.29 61.19 61.17 61.21 61.8 61.69 61.63 61.61 61.68 61.83 61.72 61.61 61.56 61.57 61.57 61.57 61.53 61.52 61.71 61.71 61.69 61.66 61.37 60.98 61.05 61.33 61.01 61.13 61.15 61.24 61.12 61.02 60.95 61.09 60.91 61.16 61.2 61.23 61.23 61.06 61.15 60.96 60.93 60.89 60.9 60.8 60.78 60.71 60.97 60.75 60.51 60.51 60.55 60.59 60.53 60.47 60.43 60.45 60.4 60.4 60.5 60.46 60.23 60.16 59.97 59.9 59.91 60.05 60.06 60.17 60.25 60.23 60.22 60.14 60.03 60.04 59.96 59.88 59.83 59.81 59.75 59.58 59.45 59.54 59.49 59.59 60.48 58.91 58.79 58.86 58.87 58.71 58.14 55.93 55.89 54.44 53.32 52.75 52.7 52.69 52.67 52.66 52.65 52.64 52.62 52.65 52.69 52.73 53.45 53.63 54.96 55.92 56 56.22 56.34 57.38 57.13 57.18 57 57 57.71 57.68 56.66 57.17 57.02 56.79 56.71 56.82 56.89 56.9 56.88 56.74 56.43 56.27 56.14 56.23 56.27 56.27 56.32 56.75 58.82 57.07 56.46 56.28 56.14 56.18 56.26 56.3 56.33 56.35 56.37 56.4 56.47 56.49 56.53 56.5 56.76 56.69 56.61 56.77 56.67 56.75 56.7 56.77 56.74 56.82 56.88 56.78 56.92 56.44 57.33 57.19 56.72 56.56 56.53 56.47 56.53 57 57.17 57.41 57.67 57.57 57.25 57.39 57.47 57.34 57.42 57.36 57.48 57.44 57.22 57.18 57.28 56.98 56.83 56.88 56.93 56.9 57.05 -9999 -9999 -9999 -9999 -9999 -9999 -9999 -9999 -9999 -9999
-9999 -9999 -9999 75.94 75.99 76.01 76.11 76.15 76 76.14 76.08 76.06 76.07 76.17 76.04 75.99 75.94 75.72 75.77 75.83 75.9 75.91 75.92 75.63 75.66 75.67 75.51 75.44 75.45 75.48 75.42 75.52 75.43 75.49 75.49 75.39 75.38 75.67 75.09 74.97 74.9 74.69 74.78 74.62 74.66 74.64 74.54 74.45 74.48 74.46 74.61 74.93 74.78 74.72 74.66 74.55 74.6 74.65 74.64 74.69 74.73 74.66 74.67 74.68 74.69 74.63 74.44 74.32 74.23 74.17 74.28 74.52 74.56 74.16 74.08 74.3 74.05 73.98 73.91 73.53 73.46 73.27 73.02 72.99 72.96 73.05 72.78 72.77 72.77 72.47 72.34 72.45 72.51 72.31 72.19 72.11 71.97 72.03 71.96 71.61 71.51 71.44 71.45 71.34 71.25 71.16 71.02 70.91 70.74 70.53 70.37 70.16 69.99 69.7 69.43 69.31 69.12 69.1 68.88 68.68 68.52 68.35 68.16 68.1 67.98 67.98 67.8 67.62 67.68 67.68 67.97 67.52 67.47 67.42 67.5 67.51 67.35 67.25 67.12 67.04 66.96 66.71 66.54 66.31 66.31 66.22 66.15 66.4 66.41 66.33 65.95 65.85 65.65 65.79 65.34 65.32 65.19 65.17 65.28 65.4 65.38 65.31 64.93 64.21 64.14 64.2 64.04 63.96 63.82 63.78 63.68 63.4 63.36 63.3 63.05 63.06 63 62.89 62.96 62.86 62.43 62.36 62.32 62.27 62.1 62.05 62.04 61.94 61.93 61.88 61.72 62.23 61.87 61.77 61.78 61.61 61.56 61.64 61.58 61.82 61.77 61.88 61.85 61.94 61.99 61.96 61.87 62.27 61.72 61.71 61.87 61.75 61.96 61.99 61.96 61.89 61.93 61.91 61.88 62.13 62.38 61.6 61.68 61.45 61.49 61.48 61.5 61.43 61.29 61.28 61.37 61.2 61.19 61.27 61.79 61.76 61.89 61.64 61.89 61.78 61.83 61.7 61.64 61.6 61.63 61.51 61.48 61.63 61.72 61.71 61.67 61.64 61.48 61.19 61.44 61.32 61.2 61.21 61.23 61.25 61.15 61.05 61.06 61.15 61.14 61.17 61.14 61.17 61.21 61.2 61.04 60.97 60.82 60.75 60.7 60.76 60.6 60.67 60.73 60.5 60.44 60.64 60.49 60.51 60.33 60.12 60.3 60.26 60.29 60.3 60.24 60.16 59.98 59.95 60.02 59.93 60.01 60.02 60 60.1 60.32 60.22 60.2 60.17 59.88 59.99 59.97 59.84 59.92 59.98 59.94 59.82 59.58 59.53 59.39 59.31 60.69 58.82 58.81 58.96 58.99 58.93 58.68 55.97 55.82 54.53 53.31 52.8 52.73 52.72 52.71 52.7 52.69 52.67 52.66 52.65 52.64 52.64 53.4 54.02 55.64 55.77 55.88 56.18 56.87 57.32 57.14 57.2 57.09 57.02 57.75 57.66 57.07 57.14 56.91 56.79 56.82 56.73 56.78 56.75 56.73 56.79 57.13 57.15 57.04 56.92 56.64 56.46 56.43 56.87 58.97 57.54 56.4 56.27 56.19 56.17 56.24 56.32 56.34 56.32 56.33 56.42 56.48 56.52 56.84 56.63 56.65 56.69 56.63 56.61 56.75 56.73 56.77 56.8 56.82 56.73 56.93 56.83 56.89 57.02 57.67 57.27 57.18 57.2 57.04 56.54 56.58 56.99 57.14 57.37 57.51 57.39 57.45 57.54 57.38 57.55 57.46 57.43 57.19 57.18 57.1 57 56.94 56.84 56.77 56.9 57 57.01 57.04 -9999 -9999 -9999 -9999 -9999 -9999 -9999 -9999 -9999 -9999
-9999 -9999 -9999 75.95 76.07 76.01 76.06 76.05 76.02 76 76 76.01 75.98 75.96 76 76.03 75.98 75.75 75.83 75.88 75.92 75.91 75.97 75.57 75.52 75.45 75.45 75.41 75.38 75.38 75.29 75.29 75.37 75.33 75.36 75.45 75.37 75.26 75.17 74.95 74.74 74.77 74.76 74.7 74.64 74.65 74.52 74.56 74.39 74.56 74.71 74.69 74.67 74.65 74.62 74.6 74.63 74.51 74.43 74.33 74.7 74.91 74.88 74.93 74.77 74.67 74.75 74.68 74.62 74.62 74.56 74.4 74.35 74.26 74.21 74.31 74.07 73.9 73.72 73.55 73.53 73.34 73.21 73.02 72.89 73.01 72.97 72.71 72.58 72.57 72.46 72.39 72.33 72.38 72.42 72.25 72.09 72.08 71.95 71.78 71.63 71.53 71.47 71.41 71.28 71.28 71.09 71.02 70.76 70.62 70.39 70.25 70.04 69.87 69.56 69.36 69.18 69.1 68.95 68.69 68.52 68.34 68.21 68.04 67.99 68.01 67.85 67.67 67.52 67.54 67.46 67.38 67.42 67.45 67.35 67.38 67.27 67.24 67.07 67.03 66.95 66.66 66.43 66.24 66.24 66.14 66.13 66.18 66.34 66.15 66.02 65.8 65.64 65.51 65.56 65.49 65.25 65.14 65.25 65.35 65.36 65.17 64.83 64.23 64.08 64.14 64.06 63.89 63.86 63.85 63.73 63.51 63.39 63.23 63.14 63.15 63.04 62.95 62.85 62.8 62.48 62.49 62.44 62.38 62.07 62.07 62.06 61.91 61.93 61.95 61.82 61.88 61.97 61.78 61.84 62.27 61.95 61.78 61.8 61.74 61.86 62.06 62.08 61.97 62.11 62 61.87 61.78 61.75 61.74 61.7 61.82 62.03 62.09 62.05 62.01 61.86 61.88 61.84 62.22 61.66 61.8 61.64 60.89 61.52 61.55 61.26 61.59 61.48 61.34 61.21 61.23 61.17 61.16 61.7 61.72 61.82 61.64 61.79 61.7 61.81 61.83 61.76 61.69 61.66 61.41 61.39 61.71 61.73 61.68 61.64 61.6 61.57 60.85 61.38 61.38 61.27 61.29 61.28 61.23 61.18 61.08 61.14 61.15 61.16 61.13 61.12 61.16 61.16 60.97 60.82 60.84 60.78 60.71 60.64 60.51 60.36 60.36 60.29 60.22 60.2 60.37 60.38 60.22 59.92 60.08 60.17 60.24 60.18 60.1 60.37 60.12 60.15 60.07 60.02 60.08 60.04 60.01 60.06 60.16 60.2 60.21 60.26 60.16 59.93 59.98 60 59.95 60.27 60.17 60.27 60.23 59.86 59.08 59.13 59.23 60.32 58.94 59 59.23 59.29 59.19 58.87 56.07 55.72 54.74 54.28 52.66 52.74 52.74 52.74 52.74 52.74 52.74 52.73 52.72 52.71 52.76 53.61 54.6 55.94 55.74 56.12 56.16 56.64 57.19 57.26 57.34 57.14 57.24 57.74 57.73 56.89 56.99 57 56.93 56.78 56.71 56.78 56.75 56.63 56.65 56.84 56.82 56.71 56.88 56.98 56.95 56.93 57.16 58.49 56.66 56.41 56.28 56.32 56.24 56.25 56.38 56.44 56.48 56.43 56.5 56.55 56.68 56.47 56.73 56.69 56.68 56.62 56.7 56.71 56.67 56.76 56.88 56.86 56.86 56.68 56.83 56.73 57.22 57.13 57.03 56.77 56.99 57.18 57.23 56.99 57.23 57.18 57.32 57.3 57.24 57.23 57.25 57.31 57.32 57.4 57.37 57.26 57.38 56.89 56.82 56.78 56.83 56.69 56.73 56.74 56.96 56.88 -9999 -9999 -9999 -9999 -9999 -9999 -9999 -9999 -9999 -9999
-9999 -9999 -9999 75.89 75.94 76.04 76.08 76.01 76.02 75.97 75.97 75.96 75.9 75.93 75.97 75.99 76 75.92 75.88 75.9 75.95 75.94 75.98 75.51 75.55 75.41 75.43 75.45 75.42 75.38 75.36 75.35 75.49 75.3 75.39 75.22 75.32 75.32 75.24 75.03 75.01 74.8 74.71 74.64 74.64 74.43 74.39 74.4 74.56 74.48 74.53 74.59 74.73 74.4 74.71 74.7 74.73 74.66 74.74 74.56 74.58 74.67 74.66 74.65 74.71 74.78 74.63 74.63 74.61 74.62 74.52 74.43 74.36 74.27 74.21 74.31 73.99 73.94 73.76 73.53 73.39 73.23 73.18 73.08 72.92 72.86 72.81 72.68 72.47 72.52 72.47 72.35 72.38 72.23 72.3 72.2 72.13 72.1 71.94 71.76 71.77 71.65 71.58 71.45 71.35 71.24 71.18 70.98 70.83 70.58 70.44 70.3 70.07 69.9 69.69 69.49 69.27 69.09 68.96 68.74 68.56 68.45 68.23 68.08 68 67.91 67.77 67.7 67.47 67.5 67.51 67.78 67.87 67.7 67.31 67.27 67.23 67.12 67.02 67.19 66.8 66.66 66.45 66.25 66.21 66.12 66.01 65.97 65.97 66.06 66.03 65.76 65.63 65.45 65.42 65.4 65.23 65.11 65.31 65.41 65.31 65.18 64.79 64.42 64.14 64.11 64.03 64.02 63.98 63.87 63.64 63.55 63.32 63.23 63.13 63.19 63.12 63.09 62.73 62.66 62.84 62.5 62.45 62.39 62.1 62.15 62.05 61.92 61.9 61.85 62.01 61.99 61.89 61.78 61.81 62.21 62.11 61.7 61.69 61.74 62.06 62.06 62.02 62.01 61.93 62.01 62.04 61.78 61.75 61.73 61.7 61.85 61.96 61.86 61.95 62.08 61.86 61.9 62.01 62.1 61.8 61.85 61.44 61.2 61.52 61.55 60.93 61.51 61.4 61.49 61.21 61.21 61.17 61.71 61.73 61.71 61.77 61.53 61.68 61.64 61.75 61.86 61.86 61.76 61.6 61.39 61.17 61.64 61.71 61.72 61.67 61.62 61.56 61.34 61.39 61.39 61.39 61.28 61.29 61.2 61.21 61.13 61.15 61.16 61.17 61.18 61.12 61.1 61.17 60.9 60.46 57.73 56.96 59.26 60.15 60.55 60.46 60.39 60.23 60.1 60.13 60.18 60.16 60.05 60.17 60.21 60.17 60.14 60.25 60.4 60.49 60.19 60.04 60.06 59.94 60.05 60.06 60.07 60.09 60.04 60.04 60.14 60.19 60.07 60.26 59.99 60.01 60 60.11 60.12 60.27 60.27 60.27 59.04 58.93 59.85 60.53 58.87 59.15 59.28 59.35 59.27 58.91 56.35 55.96 54.69 54.29 53.09 52.81 52.77 52.73 52.69 52.69 52.69 52.69 52.69 52.69 53.02 53.63 55.53 55.93 55.91 56.28 55.93 56.68 57.13 57.93 57.2 57.21 58.43 57.76 57.72 56.99 57.1 56.93 56.81 56.89 56.73 56.78 56.68 56.56 56.72 56.71 56.68 56.63 56.63 56.62 56.68 56.67 56.63 56.69 56.67 56.82 56.83 56.49 56.31 56.39 56.46 56.45 56.56 56.63 56.6 56.67 56.57 56.71 56.74 56.82 56.68 56.69 56.71 56.71 56.71 56.79 56.98 56.75 56.94 56.82 56.72 56.77 56.99 57.35 57.25 57.71 57.63 57.35 57.18 57.1 57.17 57.04 57.2 57.12 57.2 57.26 57.47 57.67 57.6 57.75 57.51 57.35 56.98 56.77 56.72 56.47 56.51 56.61 56.79 56.78 56.65 57.01 -9999 -9999 -9999 -9999 -9999 -9999 -9999 -9999 -9999 -9999
-9999 -9999 -9999 75.9 75.95 75.99 76.05 76.05 76.15 76.07 76.06 76.09 76.11 76.16 75.99 75.95 75.98 75.95 75.91 75.93 75.99 76 76.04 75.6 75.49 75.47 75.46 75.42 75.46 75.37 75.45 75.35 75.33 75.24 75.23 75.21 75.12 75.16 75.21 74.89 74.97 74.76 74.7 74.59 74.49 74.43 74.5 74.92 74.57 74.39 74.47 74.57 74.68 74.44 74.52 74.62 74.46 74.45 74.58 74.57 74.58 74.57 74.56 74.6 74.65 74.64 74.59 74.65 74.69 74.67 74.6 74.45 74.37 74.32 74.28 74.16 74.11 74.08 73.86 73.6 73.42 73.29 73.2 73.19 72.98 72.93 72.8 72.59 72.49 72.5 72.5 72.38 72.26 72.2 72.25 72.18 72.15 72.05 71.97 71.79 71.7 71.65 71.51 71.44 71.37 71.31 71.2 70.98 70.8 70.7 70.51 70.34 70.2 69.94 69.77 69.55 69.34 69.19 69.02 68.87 68.67 68.53 68.34 68.2 68.02 67.98 68.01 67.63 67.51 67.67 67.58 67.75 67.82 67.6 67.39 67.3 67.27 67.57 67.14 67.05 66.76 66.64 66.43 66.23 66.15 66.07 66.03 66.02 65.95 65.9 65.82 65.78 65.64 65.58 65.46 65.42 65.22 65.09 65.23 65.18 65.06 64.94 64.72 64.51 64.18 64.11 64.14 63.9 63.83 63.85 63.67 63.59 63.42 63.15 63.13 63.11 63.11 63.07 62.74 62.6 62.44 62.4 62.39 62.29 62.19 62.17 62.22 61.91 62.04 61.8 62.05 61.95 62.03 61.85 61.83 62.29 62.11 62.1 62.01 61.69 62.03 62.06 62.04 62.06 61.83 62.06 61.99 61.92 61.83 61.78 61.7 61.79 61.86 61.79 61.82 62.03 61.79 61.82 61.95 62.02 61.83 61.89 61.54 61.48 61.56 61.48 60.91 62.22 61.98 61.83 61.52 61.33 61.27 61.84 61.81 61.92 61.62 61.54 61.69 61.52 61.65 61.77 61.81 61.7 61.56 61.44 61.42 61.66 61.7 61.59 61.72 61.65 61.43 61.52 61.5 61.51 61.33 61.31 61.21 61.21 60.9 61.15 61.16 61.17 61.18 61.19 61.2 61.12 60.98 60.79 57.91 56.08 55.23 55.68 56.49 57.75 57.99 60.28 60.89 60.48 60.34 60.17 60.03 60.17 60.12 60.17 60.2 60.09 60.19 60.26 60.3 60.14 60.1 60.24 60.02 60.03 60.21 60.04 60.05 60.01 60.02 60.06 59.98 59.94 59.97 60.06 59.68 60.18 60.2 60.21 60.15 60.2 60.14 60.19 60.42 60.17 59.88 58.35 59.39 59.25 59.26 59.31 59.07 56.46 56.39 54.33 54.05 52.83 52.69 52.68 52.68 52.68 52.67 52.67 52.67 52.67 52.65 52.97 53.73 55.57 55.45 56.15 56.28 55.91 56.63 57.13 57.89 58.66 58.5 58.65 57.71 57.68 56.91 57.07 56.95 56.97 56.99 57.05 56.96 56.89 56.58 56.65 56.75 56.7 56.85 56.48 56.38 56.44 56.47 56.7 57.62 56.53 56.43 56.48 56.57 56.7 56.82 56.75 56.86 56.75 56.81 56.64 56.69 57.03 56.78 56.76 56.77 56.75 56.65 56.74 56.78 56.84 56.84 56.91 56.87 57 56.89 56.79 56.59 56.72 57.22 57.33 57.35 57.02 57.02 56.98 57.12 57.32 57.18 57.35 57.55 57.51 57.5 57.68 57.47 57.3 57.36 57.36 57.13 56.78 56.7 56.66 56.9 56.49 56.57 56.91 56.96 56.86 56.84 -9999 -9999 -9999 -9999 -9999 -9999 -9999 -9999 -9999 -9999
-9999 -9999 -9999 76 75.99 76 76.07 76.11 76.1 76.16 76.16 76.12 76.16 76.06 76.05 75.99 75.95 75.87 75.87 75.94 75.87 75.98 75.83 75.68 75.58 75.56 75.53 75.44 75.42 75.33 75.28 75.22 75.13 75.1 75.08 75.05 75.06 75.01 75.06 75.16 74.97 74.69 74.65 74.66 74.57 74.39 74.39 74.32 74.3 74.3 74.41 74.22 74.51 74.52 74.39 74.54 74.43 74.54 74.5 74.47 74.47 74.57 74.55 74.6 74.5 74.59 74.59 74.7 74.65 74.71 74.63 74.47 74.46 74.32 74.24 74.26 74.13 74.02 73.84 73.63 73.45 73.23 73.13 73.05 72.96 72.92 72.81 72.71 72.45 72.51 72.42 72.4 72.3 72.25 72.4 72.24 72.13 72.07 72.06 71.85 71.88 71.69 71.65 71.57 71.5 71.33 71.15 71.06 70.91 70.78 70.61 70.37 70.25 70.05 69.79 69.54 69.33 69.23 69.08 68.87 68.66 68.53 68.35 68.18 68.04 68 67.91 67.74 67.54 67.61 67.62 67.54 67.51 67.42 67.44 67.33 67.34 67.31 67.04 66.91 66.85 66.7 66.45 66.33 66.17 66.14 66 65.89 65.88 65.88 65.8 65.7 65.57 65.45 65.34 65.26 65.14 65.1 65.08 65.07 64.84 64.81 64.52 64.43 64.42 64.25 64.17 63.76 63.74 63.85 63.69 63.59 63.58 63.16 63.14 63.11 63.1 63.09 62.88 63.42 62.52 62.37 62.35 62.34 62.26 62.23 62.06 61.96 61.88 61.89 62 61.99 61.86 61.83 61.83 62.29 62.29 62.14 62.11 61.74 61.72 61.72 61.83 61.96 61.87 61.81 61.96 62.04 61.94 61.81 61.78 61.82 61.83 61.92 61.98 62.03 61.78 61.84 61.76 61.9 61.9 61.82 61.55 61.5 61.5 61.55 61.29 61.77 61.83 61.85 61.8 61.69 61.84 61.75 61.8 61.85 61.59 62.52 61.39 61.45 61.53 61.67 61.71 61.75 61.62 61.42 61.21 61.6 61.6 61.74 61.8 61.69 61.54 61.41 61.4 61.37 61.41 61.55 61.26 61.19 61.16 61.1 61.1 61.1 61.17 61.2 61.21 61.2 60.92 60.35 57.39 56.5 56.28 54.82 54.62 54.67 55.72 57.8 60.62 60.76 60.76 60.65 60.28 60.18 60.13 60.07 60.25 60.22 60.24 60.24 60.24 60.06 60.12 60.12 60.11 60.09 60.12 60.19 60.13 60.04 60.05 60.02 59.89 59.82 60.7 60.04 60.19 60.17 60.28 60.22 60.29 60.32 60.13 60.23 60.33 60.2 58.35 58.17 59.37 59.31 59.35 59.24 58.97 56.61 56.37 55.11 53.52 52.55 52.59 52.6 52.63 52.64 52.65 52.66 52.67 52.68 52.68 53.15 54.15 55.27 55.38 56.11 55.97 55.96 56.87 57.01 57.17 57.13 57.15 57.16 57.64 57.74 56.83 56.97 56.92 56.92 56.94 57.07 57.01 57.03 56.94 56.94 56.36 56.5 56.54 56.52 56.47 56.47 56.53 56.85 57.73 56.19 56.51 56.35 56.38 56.44 56.58 56.51 56.85 56.87 56.83 56.74 56.82 56.82 57.01 57.25 57.16 56.83 56.76 56.79 56.82 56.93 56.92 56.92 57.01 57.04 56.86 56.7 56.64 56.66 56.77 56.75 56.81 56.97 56.77 56.93 56.9 57.23 57.46 57.48 57.47 57.59 57.51 57.15 57.06 57.13 57.18 56.88 56.85 56.72 56.6 56.33 56.2 56.43 56.63 57.04 56.98 57.16 57.17 -9999 -9999 -9999 -9999 -9999 -9999 -9999 -9999 -9999 -9999
-9999 -9999 -9999 75.94 76 76.03 76.08 76.04 76.1 76.17 76.07 76.07 76.06 76.02 76.07 75.98 75.94 75.92 75.84 75.88 75.84 75.83 75.76 75.75 75.68 75.56 75.49 75.38 75.3 75.27 75.31 75.27 75.19 75.13 75.13 75.16 75.11 75.08 75 74.9 75.04 74.83 74.75 74.61 74.53 74.44 74.47 74.52 74.46 74.45 74.47 74.46 74.47 74.35 74.43 74.51 74.49 74.47 74.5 74.46 74.4 74.5 74.54 74.49 74.52 74.6 74.63 74.66 74.67 74.7 74.67 74.51 74.47 74.33 74.14 74.18 74.08 73.96 73.81 73.67 73.41 73.25 73.11 73.06 72.97 72.92 72.85 72.66 72.65 72.48 72.4 72.42 72.28 72.26 72.31 72.36 72.25 72.22 72.04 72.01 71.87 71.76 71.68 71.6 71.49 71.31 71.18 70.98 70.91 70.75 70.65 70.41 70.22 69.95 69.73 69.52 69.36 69.16 69 68.8 68.6 68.39 68.25 68.18 68.03 68.03 67.83 67.71 67.58 67.6 67.52 67.43 67.35 67.35 67.33 67.37 67.47 67.45 67.1 67.14 66.87 66.63 66.43 66.33 66.24 66.2 66.17 65.91 65.89 65.83 65.88 65.7 65.59 65.54 65.37 65.22 65.12 65.07 64.99 64.9 64.8 64.67 64.58 64.46 64.39 64.32 64.29 64.11 64.03 63.9 63.59 63.6 63.55 63.43 63.19 63.17 63.14 63.08 62.8 62.84 62.55 62.44 62.39 62.39 62.4 62.24 62.07 61.99 62.01 62 62.01 61.99 62 62.02 61.92 62.32 62.29 62.19 62.14 61.89 61.86 61.89 61.99 62.01 62.03 61.95 61.94 62.06 61.97 61.85 61.78 61.78 61.75 61.82 61.98 61.84 61.78 61.8 61.77 61.8 61.78 61.69 61.83 61.71 61.56 61.54 61.72 61.75 61.75 61.91 61.75 61.73 61.94 61.79 61.76 61.81 61.58 61.77 61.49 61.41 61.49 61.68 61.72 61.76 61.79 61.47 61.39 61.61 61.65 61.59 61.63 61.75 61.57 61.28 61.16 61.34 61.36 61.5 61.18 61.11 61.05 61.09 61.09 61.09 61.08 61.08 61.08 60.99 59.56 59.21 56.76 56.4 55.89 55.02 54.45 54.44 56.74 59.23 60.59 60.65 60.71 60.75 60.71 60.6 60.07 60.23 60.19 60.32 60.28 60.16 60.16 60.1 60.09 60.13 60.17 60.15 60.15 60.27 60.12 59.9 59.92 59.97 59.85 59.82 62.2 60.58 60.17 60.23 60.32 60.72 60.39 60.46 60.51 60.52 60.5 60.7 58.12 58.23 59.58 59.37 59.43 59.21 58.21 56.56 56.21 54.59 52.7 52.6 52.61 52.61 52.6 52.59 52.6 52.61 52.62 52.63 52.65 53.5 54.37 55.8 55.37 55.94 56.15 55.96 56.67 57.13 57.16 57.07 57.06 57.12 57.53 57.57 56.76 56.98 56.98 56.99 56.92 57.04 57.08 57.02 56.67 56.64 56.65 56.67 56.54 56.56 56.55 56.46 56.68 57.22 56.69 56.15 56.42 56.36 56.44 56.51 56.51 56.73 56.7 56.72 56.61 56.58 56.67 57.08 56.84 56.76 56.81 56.81 56.8 56.89 56.89 56.99 57.14 57.26 57.25 57.28 57.06 56.84 56.57 56.6 56.55 56.72 56.92 57.01 56.78 57.02 57.25 57.34 57.55 56.8 56.6 56.71 56.56 56.46 56.28 56.13 56.49 56.81 56.82 56.63 56.81 56.27 56.28 56.38 56.89 57.07 57.42 57.11 57.37 -9999 -9999 -9999 -9999 -9999 -9999 -9999 -9999 -9999 -9999
-9999 -9999 -9999 75.93 76.02 75.97 76 75.94 76.01 76.06 75.97 75.94 76.03 76.04 76.08 75.95 75.9 75.93 75.84 75.79 75.84 75.84 75.83 75.82 75.66 75.57 75.44 75.29 75.28 75.26 75.27 75.26 75.2 75.18 75.14 75.08 75.05 75.01 74.97 75.05 74.82 74.77 74.83 74.67 74.61 74.63 74.5 74.41 74.41 74.39 74.5 74.59 74.34 74.44 74.39 74.37 74.36 74.42 74.42 74.46 74.39 74.49 74.5 74.48 74.48 74.57 74.64 74.64 74.71 74.73 74.74 74.58 74.48 74.34 74.15 74.19 74.05 74 73.9 73.68 73.46 73.27 73.16 73.06 73 72.97 72.8 72.73 72.56 72.43 72.45 72.38 72.33 72.26 72.33 72.34 72.29 72.2 72.05 71.98 71.92 71.78 71.72 71.64 71.48 71.37 71.21 71.07 70.99 70.8 70.62 70.42 70.23 70.06 69.83 69.62 69.38 69.22 69.02 68.87 68.69 68.52 68.35 68.25 68.11 68.02 67.92 67.75 67.59 67.66 67.62 67.46 67.43 67.3 67.31 67.41 67.21 67.16 67.39 66.91 66.83 66.71 66.39 66.26 66.24 66.06 66 65.95 65.95 65.89 65.84 65.72 65.61 65.62 65.58 65.45 65.38 65.19 65.26 65.1 64.84 64.7 64.64 64.41 64.33 64.23 64.13 64.05 63.95 63.85 63.71 63.64 63.52 63.51 63.45 63.35 63.14 63.04 62.8 62.72 62.61 62.66 62.42 62.34 62.38 62.31 62.14 62.25 62.18 62.2 62.23 62.25 62.13 62.04 62.03 62.29 62.27 62.26 62.09 61.92 61.92 61.9 61.89 62.09 62.3 62.26 61.93 61.95 61.99 61.97 61.88 61.87 61.8 61.78 62 61.81 61.82 61.81 61.77 61.73 61.71 61.71 61.69 61.71 61.7 61.74 61.8 61.79 61.69 61.72 61.8 61.76 61.86 61.81 61.82 61.31 61.67 61.66 61.96 61.31 61.4 61.5 61.75 61.67 61.58 61.38 61.29 61.47 61.46 61.5 61.6 61.61 61 60.99 60.99 60.9 61.07 61.07 61.1 61.06 61.03 61.08 61.08 61.07 61.1 61.12 60.93 60.91 61.09 58.27 56.08 54.49 54.44 54.45 54.44 54.46 57.53 60.57 60.6 60.66 60.73 60.73 60.7 60.6 60.55 60.45 60.28 60.23 60.23 60.13 60.06 60.06 60.09 60.09 60.13 60.08 60.2 60.25 60.15 59.91 59.86 59.88 59.87 60.11 62.69 60.76 62.91 61.7 59.87 58.78 60.39 61.21 61.8 58.53 61.13 59.56 57.98 58.54 59.55 59.48 59.89 59.26 57.24 56.5 54.31 52.83 52.64 52.62 52.62 52.62 52.63 52.6 52.62 52.56 52.59 52.61 52.62 53.66 54.23 55.88 55.44 55.84 56.2 56.01 56.48 57.1 57.06 57.1 57.12 57.1 57.55 57.52 56.91 56.94 56.96 57.01 56.95 57.02 57.02 56.97 56.8 56.76 56.63 56.47 56.46 56.48 56.38 56.55 56.86 57.79 56.28 56.65 56.52 56.55 56.49 56.56 56.6 56.71 56.63 56.6 56.55 56.62 56.55 56.46 56.82 56.56 56.7 56.77 56.86 56.83 56.76 57.09 57.11 57.16 57 57.03 57.01 56.96 57.14 56.85 56.78 56.91 57.19 57.15 57.21 57.13 57.08 57.53 56.67 56.48 56.4 56.52 56.35 56.24 56.03 56.12 56.3 56.71 56.66 56.56 56.6 56.36 56.21 56.43 56.96 57.45 57.35 57.28 57.59 -9999 -9999 -9999 -9999 -9999 -9999 -9999 -9999 -9999 -9999
-9999 -9999 -9999 75.78 75.82 75.85 75.88 75.88 75.89 75.95 75.89 75.94 76.04 76.02 75.98 75.97 75.98 75.97 75.92 75.81 75.79 75.82 75.81 75.74 75.68 75.49 75.39 75.31 75.27 75.25 75.25 75.25 75.14 75.12 75.16 75.12 75.06 75.01 74.93 74.94 74.91 74.74 74.73 74.82 74.59 74.55 74.54 74.46 74.37 74.38 74.3 74.32 74.5 74.4 74.39 74.36 74.34 74.36 74.43 74.47 74.41 74.46 74.5 74.53 74.55 74.53 74.64 74.64 74.66 74.74 74.79 74.63 74.56 74.4 74.23 74.22 74.14 73.97 73.91 73.74 73.54 73.34 73.23 73.06 72.94 72.99 72.78 72.63 72.52 72.48 72.47 72.45 72.35 72.29 72.4 72.39 72.2 72.15 72.15 72.01 72 71.82 71.76 71.64 71.51 71.38 71.23 71.08 70.87 70.77 70.57 70.38 70.23 70.04 69.8 69.58 69.34 69.19 69.09 68.93 68.68 68.59 68.47 68.3 68.19 68.07 68.08 67.77 67.6 67.64 67.58 67.61 67.46 67.3 67.72 67.13 67.07 67.11 66.97 66.83 66.64 66.54 66.42 66.33 66.2 66.11 66.04 66.09 65.99 65.97 65.86 65.72 65.63 65.61 65.76 65.51 65.48 65.24 65.2 65.21 65.06 64.73 64.62 64.62 64.51 64.55 64.44 64.1 64.06 63.89 63.69 63.56 63.51 63.44 63.37 63.28 63.17 63.1 62.93 62.84 62.71 62.7 62.54 62.58 62.56 62.36 62.33 62.5 62.39 62.21 62.24 62.22 62.18 62.14 62.25 62.27 62.36 62.37 62.11 61.95 62.03 62.06 61.92 62.06 62.13 62.13 61.9 61.93 62.06 62.13 62.01 61.94 61.93 61.9 61.88 61.83 61.8 61.79 61.75 61.81 61.93 61.82 61.7 61.7 61.68 61.69 61.73 61.69 61.66 61.68 61.73 61.79 61.76 61.85 61.91 61.31 62.03 61.68 62.28 61.49 61.55 61.57 61.51 61.45 61.44 61.25 61.05 61.01 61.35 61.4 61.42 60.91 61.18 61.21 61.11 61.43 61.02 61.09 61.09 60.79 60.8 61.1 61.13 61.16 61.13 61.05 61.05 61.06 60.99 57.77 55.79 54.42 54.51 54.46 54.45 54.6 57.63 60.6 60.67 60.67 60.73 60.76 60.68 60.66 60.63 60.63 60.6 60.4 60.31 60.17 60.13 60.16 60.13 60.18 60.06 60.1 60.13 60.16 60.08 60.03 59.93 59.89 59.89 61.99 62.75 62.16 63.91 64.17 63.47 61.94 60.48 59.46 60.53 58.12 60.04 58.65 57.84 59.13 59.43 59.4 59.38 59.2 56.42 56.15 52.64 52.61 52.64 52.65 52.65 52.63 52.64 52.64 52.63 52.59 52.63 52.54 52.57 53.62 54.5 55.75 55.43 55.73 56.27 56.05 56.53 57.08 57.11 57.16 57.13 56.8 57.58 57.46 57.2 57.21 57.06 56.96 56.97 57.04 57.02 57.04 56.79 56.71 56.65 56.59 56.51 56.47 56.37 56.71 57.32 56.52 56.35 56.57 56.61 56.65 56.64 56.63 56.63 56.61 56.65 56.54 56.58 56.5 56.51 56.54 56.66 56.53 56.52 56.32 56.36 56.4 56.56 56.65 56.98 57.22 57.09 57.04 57.07 56.82 56.76 56.81 56.98 57 56.98 57.11 57.12 57.27 56.98 56.71 56.42 56.54 56.46 56.41 56.38 56.35 56.24 56.33 56.5 56.58 56.6 57.18 57.13 56.23 56.3 56.5 57.16 57.67 57.5 57.66 57.72 -9999 -9999 -9999 -9999 -9999 -9999 -9999 -9999 -9999 -9999
-9999 -9999 -9999 75.79 75.78 75.81 75.9 75.84 75.9 75.79 75.85 75.86 75.91 75.93 75.9 75.89 75.89 75.93 75.9 75.78 75.78 75.84 75.73 75.69 75.7 75.62 75.46 75.37 75.29 75.28 75.28 75.19 75.18 75.11 75.15 75.14 75.07 75 74.86 74.84 74.9 74.95 74.84 74.71 74.83 74.55 74.41 74.4 74.37 74.32 74.37 74.44 74.57 74.39 74.38 74.47 74.35 74.36 74.42 74.41 74.48 74.42 74.52 74.53 74.52 74.54 74.65 74.72 74.76 74.83 74.87 74.72 74.58 74.47 74.3 74.23 74.13 74.02 73.9 73.79 73.58 73.37 73.26 73.05 72.97 72.9 72.77 72.62 72.66 72.45 72.45 72.43 72.32 72.32 72.37 72.33 72.24 72.18 72.23 72.07 71.99 71.9 71.76 71.64 71.54 71.35 71.25 71.09 70.91 70.75 70.55 70.37 70.2 69.97 69.73 69.5 69.35 69.2 69.09 68.92 68.77 68.57 68.4 68.29 68.25 68.09 67.95 67.83 67.6 67.49 67.53 67.51 67.48 67.31 67.27 67.17 67.21 67.16 67.02 66.77 66.65 66.36 66.56 66.29 66.18 66.25 66.15 66.08 66.04 66.03 65.88 65.72 65.65 65.59 65.73 65.51 65.61 65.23 65.33 65.19 64.96 64.98 64.77 64.63 64.7 64.6 64.55 64.04 63.96 63.98 63.76 63.79 63.83 63.76 63.5 63.44 63.26 63.17 62.96 62.86 62.77 62.62 62.54 62.51 62.49 62.42 62.32 62.28 62.26 62.19 62.19 62.24 62.22 62.31 62.22 62.21 62.4 62.22 62.12 62.03 62.08 62.04 61.98 62.1 62.09 62.06 61.9 62 62.11 62.13 62.05 61.95 61.78 61.89 62.07 61.82 61.81 61.78 61.72 61.81 61.8 61.45 61.47 61.49 61.5 61.78 61.77 61.68 61.7 61.7 61.72 61.67 61.81 61.81 61.87 61.28 61.47 61.82 62.08 61.94 61.73 61.62 61.41 61.4 61.41 61.16 61.04 61.25 61.23 60.98 60.94 61.06 61.14 61.08 61.04 61.13 61.02 61.1 61.12 61.15 60.81 61.19 61.22 61.17 61.17 61.17 61.17 61.2 60.88 57.98 55.51 54.36 54.42 54.49 54.44 54.43 58.02 60.57 60.71 60.67 60.74 60.77 60.71 60.69 60.7 60.71 60.43 60.34 60.26 60.21 60.19 60.26 60.2 60.2 60.16 60.22 60.22 60.16 60.1 60.06 60.02 59.89 59.83 60.31 60.44 60.97 61.31 63.45 65.2 63.37 62.94 61.2 59.47 59.01 59.31 58.95 57.9 59.45 59.44 59.38 59.36 58.51 56.37 54.8 52.69 52.58 52.64 52.65 52.65 52.66 52.67 52.65 52.66 52.66 52.62 52.59 52.64 53.52 55.03 55.48 55.57 55.78 56.2 56.04 56.2 57.09 57.22 57.29 57.21 56.99 57.61 57.47 57.14 57.12 56.98 57.03 56.94 57.06 57.14 57.02 56.84 56.65 56.7 56.62 56.58 56.41 56.46 56.87 57.78 56.18 56.75 56.57 56.71 56.62 56.73 56.59 56.52 56.6 56.55 56.44 56.42 56.5 56.47 56.57 56.59 56.82 56.54 56.2 56.32 56.52 56.54 56.63 56.64 56.94 56.73 56.74 56.99 56.64 56.58 56.53 56.88 57.09 57.02 57.04 56.81 56.84 56.67 56.74 56.71 56.55 56.54 56.34 56.57 56.4 56.21 56.47 56.41 56.46 56.55 56.19 56.65 56.25 56.61 56.7 57.1 57.49 57.5 57.65 57.64 -9999 -9999 -9999 -9999 -9999 -9999 -9999 -9999 -9999 -9999
-9999 -9999 -9999 75.82 75.85 75.91 75.96 75.86 75.76 75.8 75.83 75.83 75.87 76 75.87 75.86 75.78 75.88 75.84 75.87 75.8 75.8 75.71 75.75 75.72 75.62 75.5 75.42 75.38 75.37 75.33 75.27 75.17 75.12 75.38 75.21 75.12 75.02 74.95 74.87 74.86 74.85 74.84 74.79 74.72 74.6 74.48 74.46 74.43 74.38 74.45 74.4 74.14 74.46 74.4 74.46 74.43 74.32 74.34 74.4 74.38 74.39 74.54 74.51 74.49 74.58 74.65 74.49 74.79 74.84 74.84 74.77 74.62 74.55 74.35 74.26 74.23 74.11 73.96 73.84 73.68 73.43 73.24 73.08 73.02 72.92 72.83 72.66 72.57 72.49 72.49 72.47 72.33 72.27 72.24 72.32 72.16 72.16 72.19 72.08 72.04 71.85 71.84 71.73 71.59 71.36 71.24 71.05 70.87 70.73 70.61 70.39 70.21 69.96 69.79 69.6 69.41 69.27 69.08 68.92 68.76 68.56 68.36 68.25 68.17 68.04 67.94 67.85 67.58 67.62 67.55 67.39 67.34 67.31 67.16 67.12 67.15 67.08 67.33 66.76 66.51 66.4 66.41 66.27 66.09 66.14 66.28 66.06 66.03 66.03 65.85 65.73 65.69 65.56 65.51 65.54 65.64 65.28 65.57 65.47 64.98 64.88 64.83 64.67 64.76 64.66 64.56 64.23 64.13 63.9 63.75 63.8 63.78 63.88 63.76 63.35 63.01 63.19 63.04 62.79 62.65 62.63 62.63 62.45 62.46 62.44 62.3 62.29 62.29 62.22 62.17 62.18 62.19 62.17 62.13 62.08 62.03 62.02 62.07 62.07 62.13 62.13 62.08 62.18 62.13 62.07 61.96 62.22 62.03 62.04 61.99 61.99 62.01 61.99 62.01 61.86 61.8 61.87 61.7 61.86 61.78 61.23 61.52 61.48 61.36 62.09 62.1 62.05 62.02 62 61.85 61.76 61.85 61.81 61.82 61.63 61.64 61.54 61.38 61.92 61.71 61.65 61.33 61.3 61.28 61.12 61.01 60.96 60.99 61.07 60.84 60.96 61.03 60.97 60.97 61.06 61.08 61.03 61.11 61.03 61.38 60.74 61.26 61.25 61.24 61.29 61.29 61.17 59.86 56.78 55.34 54.49 54.42 54.46 54.47 54.38 56.92 60.54 60.65 60.32 60.42 60.75 60.75 60.76 60.75 60.77 60.45 60.36 60.36 60.35 60.36 60.39 60.41 60.35 60.23 60.18 60.3 60.19 60.14 60.05 60.01 60.03 60.05 60.15 60.25 60.44 60.49 60.73 61.76 64.41 62.62 62.34 60.99 59.09 60.02 58.32 57.96 59.44 59.48 59.59 59.21 58.26 56.44 55.24 53.02 52.62 52.64 52.64 52.65 52.66 52.66 52.67 52.68 52.68 52.68 52.65 52.6 53.65 55.05 55.63 55.58 55.6 56.03 56.16 56.39 56.84 57.01 57.09 57.15 57.11 57.76 57.77 57.01 57.12 56.99 56.95 56.96 57.09 57 56.86 56.71 56.69 56.64 56.58 56.6 56.44 56.5 56.81 57.52 56.01 56.58 56.73 56.81 56.75 56.56 56.52 56.6 56.53 56.5 56.37 56.42 56.47 56.54 56.56 56.73 56.43 56.59 56.36 56.4 56.72 56.93 56.89 56.71 56.6 56.89 56.99 56.93 56.81 56.56 56.57 56.58 56.87 57.03 57.09 57.03 57.01 57 57 56.9 56.67 56.6 56.37 56.57 56.64 56.43 56.49 56.5 56.64 56.46 56.35 56.14 56.29 56.78 56.96 57.39 57.33 57.36 57.41 57.5 -9999 -9999 -9999 -9999 -9999 -9999 -9999 -9999 -9999 -9999
-9999 -9999 -9999 75.85 75.81 75.94 75.92 75.95 75.77 75.8 75.91 75.95 76 75.9 75.92 75.83 75.85 75.92 75.95 75.91 75.83 75.77 75.76 75.78 75.72 75.6 75.51 75.42 75.37 75.4 75.37 75.29 75.19 75.21 75.29 75.21 75.09 75.01 74.95 74.89 74.81 74.68 74.63 74.72 74.66 74.7 74.61 74.57 74.54 74.38 74.45 74.45 74.32 74.53 74.45 74.5 74.54 74.37 74.36 74.43 74.4 74.38 74.47 74.49 74.49 74.58 74.67 74.57 74.82 74.85 74.89 74.76 74.66 74.54 74.46 74.22 74.23 74.18 74.07 73.92 73.73 73.52 73.38 73.12 72.99 72.85 72.78 72.64 72.55 72.51 72.52 72.46 72.32 72.26 72.2 72.29 72.19 72.15 72.18 72.06 71.99 71.89 71.85 71.78 71.62 71.39 71.21 71.02 70.84 70.73 70.57 70.37 70.08 69.98 69.79 69.57 69.36 69.17 69.04 68.88 68.71 68.54 68.37 68.22 68.18 68.07 67.94 67.79 67.65 67.54 67.55 67.55 67.49 67.72 67.22 67.17 67.36 67.39 66.84 66.72 66.26 66.43 66.35 66.18 66.07 66.14 66.42 66.24 66.14 66.15 65.83 65.69 65.72 65.79 65.81 65.81 65.68 65.25 65.28 65.25 64.97 64.94 64.86 64.72 64.7 64.82 64.52 64.28 64.1 63.9 63.85 63.87 63.71 63.79 63.59 63.27 62.35 63.39 63.04 62.75 62.67 62.6 62.54 62.27 62.24 62.24 62.11 62.12 62.26 62.22 62.11 62.02 61.91 62.2 62.19 62.13 62.1 62.02 62.03 62.02 62.03 62.01 62.02 61.98 61.98 61.93 61.89 62.01 62.03 62.03 62.09 62.08 61.97 61.95 61.9 61.78 61.84 61.84 61.85 61.82 61.62 61.01 61.49 61.43 60.92 61.97 61.92 61.92 61.95 61.92 62.14 61.8 61.9 61.91 61.83 61.6 61.68 61.61 61.62 61.32 61.33 61.21 61.2 61.23 61.22 61.08 60.98 60.93 60.82 60.85 60.82 60.89 61.01 60.86 60.9 61.1 60.76 61.03 60.99 61.02 61.14 61.28 61.1 61.35 61.23 61.08 61.03 59.46 57.3 56.86 54.86 54.42 54.45 54.48 54.45 54.41 57.08 60.56 60.46 60.44 60.36 60.35 60.39 60.34 60.48 60.39 60.4 60.38 60.46 60.47 60.52 60.56 60.56 60.39 60.43 60.3 60.38 60.35 60.33 60.23 60.17 60.11 60.13 60.16 60.16 60.2 60.43 60.58 60.45 60.85 63.18 63.16 60.85 60.71 61.09 58 57.95 59.43 59.47 59.25 59.2 59.31 56.71 56.48 54.68 52.67 52.64 52.64 52.65 52.66 52.66 52.67 52.68 52.68 52.69 52.7 52.56 53.52 55.33 55.72 55.46 55.64 56.27 56.16 56.43 57.03 57.1 57.11 57.16 57.15 57.69 57.82 56.89 57.11 57.09 56.98 56.94 57.02 56.96 56.83 56.84 56.68 56.6 56.56 56.57 56.48 56.54 56.91 57.06 56.15 56.59 56.7 56.77 56.65 56.54 56.53 56.54 56.43 56.46 56.5 56.4 56.54 56.6 56.67 56.95 56.7 56.72 56.7 56.88 56.82 56.76 57.03 57.63 57.21 56.97 57.48 57.43 56.85 56.67 56.65 56.5 56.63 56.91 57.26 57.11 57.22 57.36 57.14 56.65 56.54 56.77 56.89 56.85 56.58 56.62 56.81 56.83 56.66 56.46 56.52 56.51 56.3 56.9 57.2 57.45 57.32 57.44 57.05 57.68 -9999 -9999 -9999 -9999 -9999 -9999 -9999 -9999 -9999 -9999
-9999 -9999 -9999 75.74 75.72 75.79 75.87 75.85 75.81 75.89 76.01 76.01 76.01 75.89 75.88 75.86 75.89 75.9 75.91 75.99 75.95 75.93 75.86 75.85 75.77 75.58 75.53 75.48 75.46 75.43 75.33 75.27 75.23 75.31 75.51 75.2 75.11 75.06 75.17 74.89 74.77 74.68 74.61 74.59 74.62 75.1 74.66 74.57 74.59 74.43 74.51 74.37 74.51 74.47 74.46 74.44 74.55 74.38 74.41 74.45 74.48 74.41 74.5 74.51 74.53 74.58 74.67 74.68 74.93 74.85 74.9 74.81 74.63 74.6 74.5 74.26 74.22 74.18 74.08 73.99 73.8 73.61 73.42 73.24 73.05 72.9 72.81 72.71 72.57 72.53 72.57 72.53 72.35 72.29 72.25 72.32 72.18 72.19 72.3 72.05 71.99 71.97 71.92 71.8 71.69 71.47 71.25 71.04 70.9 70.72 70.54 70.38 70.2 70 69.81 69.62 69.42 69.31 69.13 68.99 68.8 68.66 68.44 68.24 68.11 68.08 67.99 67.78 67.59 67.53 67.55 67.56 67.55 67.53 67.16 67.11 67.36 67.35 66.86 66.81 66.27 66.46 66.29 66.26 66.1 66.15 66.46 66.31 66.13 66.06 65.85 65.71 65.75 65.81 65.87 65.89 65.71 65.4 65.26 65.25 65.12 64.88 65 64.81 64.83 64.64 64.42 64.18 64.18 63.93 63.81 63.79 63.65 63.55 63.48 63.21 63.14 63.14 63.02 62.72 62.73 62.59 62.56 62.34 62.41 62.32 62.01 62.1 62.03 62.03 61.92 61.86 61.91 62.01 62.03 61.95 61.91 61.9 61.9 62 62.08 61.87 62.14 62.1 62.08 61.93 61.91 61.94 61.93 61.93 61.89 61.94 61.86 61.83 61.85 61.84 61.8 61.87 61.87 62.03 61.46 61.48 61.53 61.53 61.3 62 61.95 61.95 61.96 61.97 61.95 61.86 61.9 62.12 61.85 61.74 61.68 61.63 61.65 61.62 61.4 61.35 61.33 61.35 61.44 61.28 61.17 61.41 60.92 60.92 60.82 60.86 60.84 60.73 60.72 60.72 60.65 60.57 60.67 60.85 61.02 61.12 61.22 61.32 61.09 60.91 59.01 58.15 57.23 56.75 56.66 55.41 54.51 54.4 54.94 55.12 57.59 60.66 60.8 60.71 60.77 60.85 61.15 60.45 60.41 60.38 60.45 60.48 60.43 60.54 60.66 60.47 60.53 60.46 60.6 60.45 60.48 60.4 60.48 60.4 60.24 60.26 60.22 60.26 60.31 60.49 60.83 61.91 60.66 60.02 60.58 60.94 61.07 60.42 60.73 57.91 58.26 59.3 59.3 59.31 59.22 58.71 56.77 56.54 54.3 52.81 52.75 52.68 52.65 52.66 52.67 52.67 52.68 52.69 52.69 52.7 52.64 53.72 55.69 55.6 55.48 55.69 56.22 56.22 56.21 57.11 57.12 57.15 57.14 57.27 57.73 57.78 56.86 57.03 56.92 56.96 57 57.03 57.03 56.77 56.88 56.76 56.6 56.57 56.59 56.48 56.69 56.96 56.72 56.32 56.65 56.74 56.66 56.52 56.49 56.45 56.46 56.41 56.5 56.55 56.53 56.66 56.69 56.8 56.75 56.75 56.68 56.84 56.97 56.93 56.66 57.06 57.84 57.53 57.32 57.37 56.98 56.73 56.68 56.52 56.53 56.62 56.71 56.95 57.1 57.03 57.32 57.33 56.95 56.75 56.81 56.7 56.67 56.7 56.68 56.6 56.72 56.91 57.08 57.06 56.81 56.88 56.86 57.4 57.43 57.47 57.29 57.28 57.49 -9999 -9999 -9999 -9999 -9999 -9999 -9999 -9999 -9999 -9999
-9999 -9999 -9999 75.74 75.87 75.91 75.76 75.88 75.82 75.96 76 75.97 76.03 75.93 75.93 75.91 75.89 75.94 75.98 75.92 76.01 75.98 75.85 75.84 75.72 75.74 75.64 75.58 75.57 75.53 75.49 75.39 75.34 75.29 75.42 75.28 75.16 75.06 74.83 74.75 74.71 74.79 74.71 74.72 74.73 74.71 74.72 74.62 74.55 74.56 74.4 74.49 74.64 74.56 74.42 74.43 74.45 74.38 74.43 74.43 74.4 74.37 74.5 74.53 74.55 74.6 74.7 74.73 74.76 74.84 74.87 74.86 74.65 74.54 74.43 74.21 74.31 74.25 74.13 74.03 73.89 73.69 73.49 73.29 73.07 72.92 72.88 72.78 72.62 72.52 72.56 72.48 72.4 72.37 72.32 72.4 72.24 72.22 72.35 72.08 72.07 72.06 72 71.83 71.75 71.54 71.28 71.08 70.91 70.77 70.54 70.42 70.22 70.04 69.79 69.64 69.51 69.33 69.16 69.04 68.8 68.64 68.53 68.37 68.17 68.13 68.01 67.77 67.61 67.58 67.52 67.41 67.21 67.22 67.27 67.25 67.16 67.02 67.11 66.86 66.55 66.43 66.3 66.47 66.38 66.14 66.11 66.07 66.02 65.95 65.87 65.7 65.86 65.87 66 65.85 65.61 65.33 65.39 65.2 65.09 65 64.94 64.72 64.63 64.58 64.39 64.16 64.12 63.93 63.76 63.7 63.66 63.46 63.32 63.23 63.16 63.23 63.11 62.72 62.57 62.59 62.61 62.34 62.32 62.16 62.04 62.06 62.03 61.88 61.91 61.83 62.03 62.01 62.03 62 61.96 61.96 61.92 61.78 61.83 61.78 61.89 61.9 61.82 61.78 61.75 61.8 61.82 62.03 61.96 61.98 61.93 61.86 61.82 61.83 61.94 61.82 61.91 61.84 61.53 61.48 61.45 61.51 62 62.25 61.97 62 61.98 62 62.08 61.9 61.89 61.95 61.67 61.77 61.71 61.62 61.65 61.47 61.44 61.37 61.36 61.2 61.13 61.14 61.11 61.27 61.2 61.15 61.13 61.03 61.16 61.15 61.11 61.03 60.86 60.94 60.64 60.66 60.74 61 61.04 61 60.58 59.94 59.29 60.04 60.19 60.5 60.4 58.78 58.71 58.74 60.04 59.43 59.24 60.69 61.01 60.91 61.01 61.06 61.05 61.08 61.08 60.36 60.42 60.47 60.61 60.68 60.61 62.15 63.05 61.47 60.91 60.51 60.61 60.56 60.56 60.51 60.43 60.57 60.65 60.34 60.9 61.05 61.33 61.77 63.08 61.43 60.96 62.07 60.9 61.54 59.87 57.85 57.83 58.96 59.15 59.3 59.17 57.49 56.86 55.67 53.5 52.59 52.65 52.72 52.78 52.77 52.7 52.68 52.68 52.69 52.7 52.7 52.9 53.78 55.38 55.44 55.2 55.59 56.69 56.28 56.14 57.19 57.12 57.19 57.18 57.19 57.79 57.83 56.98 57.01 56.99 56.88 56.94 56.96 57.1 56.86 56.79 56.67 56.6 56.6 56.57 56.43 56.76 57.38 56.46 56.46 56.68 56.74 56.65 56.53 56.5 56.43 56.43 56.5 56.5 56.62 56.61 56.67 56.73 56.76 56.53 56.67 56.69 57.02 56.73 56.89 56.75 56.98 57.21 57.51 57.2 56.94 56.7 56.67 56.53 56.44 56.56 56.65 56.66 57.03 57.15 57.1 57.18 57.48 57.65 57.54 57.3 57.49 57.21 56.75 56.49 56.63 56.76 56.96 57.18 57.58 57.39 57.03 56.96 57.01 57.19 57.25 57.05 57.35 57.52 -9999 -9999 -9999 -9999 -9999 -9999 -9999 -9999 -9999 -9999
-9999 -9999 -9999 75.85 75.81 75.9 75.77 75.74 75.76 75.78 75.7 75.89 75.9 75.92 75.96 75.96 75.98 75.98 75.99 75.98 75.95 75.88 75.79 75.7 75.64 75.62 75.65 75.62 75.58 75.54 75.49 75.46 75.45 75.36 75.33 75.23 75.1 75.12 74.99 74.99 74.93 74.84 74.77 74.78 74.7 74.63 74.63 74.66 74.64 74.55 74.75 74.63 74.64 74.51 74.37 74.41 74.4 74.38 74.38 74.46 74.46 74.42 74.48 74.59 74.62 74.62 74.68 74.69 74.82 74.81 74.88 74.93 74.67 74.59 74.35 74.22 74.29 74.27 74.18 74.05 73.95 73.74 73.58 73.4 73.14 72.94 72.9 72.78 72.69 72.51 72.59 72.56 72.42 72.38 72.4 72.4 72.23 72.33 72.4 72.17 72.21 72.12 72.07 72 71.88 71.71 71.41 71.07 70.99 70.76 70.62 70.44 70.34 70.08 69.86 69.7 69.53 69.38 69.18 69.04 68.9 68.68 68.58 68.42 68.26 68.25 68.05 68.09 67.76 68.42 67.55 67.47 67.35 67.3 67.28 67.25 67.14 67.13 67.18 66.78 66.68 66.77 68.1 67.23 66.27 66.12 66.14 66.05 66.06 66.06 65.81 65.71 65.83 65.93 66.13 65.79 65.62 65.4 65.39 65.22 65.14 65.1 65.02 64.51 64.51 64.51 64.32 64.07 64.01 63.87 63.84 63.74 63.62 63.42 63.27 63.14 63.16 63.44 62.94 62.73 62.7 62.71 62.47 62.19 62.24 62.16 62.15 62.01 62.04 61.86 61.94 61.79 61.96 61.93 61.92 61.89 62.13 62.01 61.83 61.79 61.78 61.9 61.82 61.87 61.84 61.71 61.79 61.82 61.74 61.93 62.08 62.17 62 61.82 61.89 61.9 61.95 61.81 61.86 61.81 61.36 61.53 61.52 61.51 61.52 61.96 61.87 61.99 62.03 62 61.97 61.95 61.97 61.83 61.62 61.82 61.8 61.71 61.5 61.4 61.41 61.35 61.28 61.39 61.26 61.1 61.11 61.2 61.03 61.03 61.07 61.07 61.11 61.15 60.93 60.86 60.87 60.81 60.82 60.74 60.51 60.51 60.6 60.6 60.56 60.7 60.55 60.52 60.5 60.69 60.07 60.37 60.68 60.84 60.82 60.95 60.69 61.22 61.2 61.2 61.22 61.1 61.19 61.13 61.1 61.05 61.02 61.27 60.69 60.69 61.51 63.16 63.1 62.83 62.84 62.46 62.08 60.93 60.83 60.8 61.35 60.87 60.62 60.67 61.38 61.55 61.55 63.06 62.55 61.08 60.42 60.51 60.33 60.26 59.17 57.8 57.65 57.44 57.21 57.15 57.23 57 56.86 55.36 52.63 52.71 52.73 52.73 52.7 52.68 52.65 52.66 52.72 52.72 52.71 52.71 53.35 53.9 55.54 55.29 54.95 55.29 56.44 56.26 56.21 56.94 57.12 57.18 57.17 57.13 57.82 57.86 57.14 57.21 56.92 56.98 57.09 57.07 57.13 56.9 56.77 56.67 56.71 56.61 56.6 56.51 56.84 57.58 56.2 56.61 56.74 56.68 56.59 56.51 56.52 56.43 56.53 56.47 56.54 56.71 56.68 56.78 56.85 56.85 56.61 56.56 56.88 56.82 57.07 56.72 56.76 56.76 57.15 57.35 56.93 56.73 56.6 56.65 56.52 56.51 56.64 56.71 56.72 57 56.88 56.88 56.99 57.2 57.41 57.45 57.86 57.98 57.78 57.14 56.84 57.07 57.05 57.31 57.35 57.3 57.47 57.29 57.95 58.03 57.86 57.62 57.37 57.23 57.24 -9999 -9999 -9999 -9999 -9999 -9999 -9999 -9999 -9999 -9999
-9999 -9999 -9999 75.94 75.91 75.93 75.87 75.85 75.8 75.89 75.74 75.81 75.9 75.96 76.03 76.03 76.05 76.04 76.05 76.08 76.06 75.95 75.87 75.81 75.73 75.69 75.69 75.6 75.6 75.58 75.54 75.51 75.49 75.41 75.32 75.24 75.16 75.14 75.12 74.99 74.93 74.91 74.81 74.7 74.64 74.58 74.59 74.58 74.71 74.55 74.56 74.79 74.64 74.51 74.38 74.47 74.42 74.37 74.39 74.45 74.47 74.43 74.52 74.64 74.67 74.72 74.77 74.86 74.86 74.85 74.93 74.93 74.73 74.61 74.39 74.21 74.26 74.24 74.23 74.1 73.99 73.75 73.63 73.43 73.18 73.01 72.95 72.89 72.83 72.64 72.66 72.48 72.13 72.33 72.27 72.36 72.28 72.27 72.3 72.37 72.21 72.19 72.06 72.03 71.98 71.88 71.56 71.23 71.02 70.85 70.65 70.47 70.35 70.15 69.95 69.75 69.65 69.49 69.36 69.23 69.06 68.88 68.64 68.47 68.36 68.33 68.07 68.23 67.84 67.62 67.58 67.47 67.45 67.35 67.28 67.18 67.23 67.16 67.15 66.8 67.18 67.76 67.72 66.49 66.18 66.09 66.09 66.11 66.04 66.03 65.86 65.72 65.92 65.93 65.92 65.86 65.71 65.5 65.4 65.22 65.09 65.07 64.96 64.51 64.51 64.49 64.3 64.03 64 63.82 63.84 63.7 63.45 63.31 63.14 63.14 63.09 63.08 62.87 62.71 62.53 62.47 62.43 62.15 62.1 62.03 62.12 62 61.9 61.99 61.9 61.81 62.03 61.91 62 61.98 61.96 61.73 61.68 61.91 61.9 61.74 61.85 61.83 61.9 61.81 61.71 61.78 61.79 61.84 62.17 62.19 61.92 61.81 61.91 61.92 61.87 61.75 61.8 61.7 61.03 61.48 61.49 60.98 61.5 61.99 62.02 61.99 62.03 62.04 61.91 61.93 62.03 61.79 61.87 61.8 61.82 61.58 61.61 61.45 61.36 61.28 61.27 61.3 61.22 61.26 61.11 61.02 60.93 60.9 60.91 61.13 61.42 61.28 61.01 60.92 60.79 60.79 60.71 60.85 60.48 60.46 60.47 60.47 60.59 60.61 60.65 60.66 60.66 60.66 60.14 60.87 60.75 60.83 60.92 60.9 60.85 61.04 61.08 61.09 61.04 61.14 61.26 61.21 61.16 61.01 60.99 63.58 63.12 62.33 61.36 62.59 62.97 63.03 61.77 62.11 61.44 60.88 60.98 62.06 62.05 60.86 61.08 61.31 62.55 62.55 62.45 62.52 62.09 60.52 60.36 60.26 60.05 60.51 58.97 57.76 57.55 57.41 57.17 57.19 57.17 57.14 55.8 54.96 52.64 52.65 52.65 52.65 52.66 52.66 52.67 52.71 52.71 52.71 52.71 52.71 53.44 53.48 55.32 55.52 55 55.15 56.15 56.57 56.35 56.38 57.36 57.15 57.16 57.25 57.86 57.9 56.99 57.09 56.96 57.03 57.1 57.13 57.07 56.86 56.72 56.71 56.57 56.5 56.6 56.59 56.96 57.95 56.08 56.63 56.65 56.62 56.56 56.53 56.53 56.49 56.49 56.53 56.65 56.57 56.63 56.77 58.19 57.71 56.68 56.43 56.77 56.68 56.63 56.72 56.64 56.65 56.78 56.86 56.98 56.87 56.73 56.78 56.58 56.46 56.65 56.64 56.67 56.82 56.99 56.88 56.77 56.84 57.09 57.28 57.61 57.68 57.71 57.65 57.41 57.67 57.67 57.38 57.72 57.82 57.56 57.66 57.98 58.22 58.09 58.03 57.83 57.53 57.31 -9999 -9999 -9999 -9999 -9999 -9999 -9999 -9999 -9999 -9999
-9999 -9999 -9999 75.94 75.94 76.03 75.99 76.17 75.87 75.93 75.75 75.83 75.94 76 76.03 76.05 76.07 76.1 76.15 76.14 76.11 76.03 75.93 75.87 75.82 75.74 75.71 75.64 75.58 75.59 75.53 75.5 75.49 75.39 75.34 75.28 75.21 75.12 75.08 75.04 74.96 74.82 74.78 74.77 74.72 74.62 74.6 74.55 74.57 74.48 74.57 74.53 74.6 74.65 74.41 74.43 74.39 74.31 74.42 74.37 74.41 74.42 74.49 74.66 74.75 74.71 74.78 74.85 74.87 74.84 75 74.95 74.89 74.69 74.43 74.22 74.13 74.25 74.21 74.13 73.96 73.8 73.68 73.46 73.24 73.06 73.06 72.78 72.76 72.84 72.75 72.64 72.59 72.47 72.47 72.53 72.34 72.35 72.38 72.29 72.19 72.21 72.15 72.09 72.05 71.85 71.48 71.31 70.98 70.75 70.6 70.44 70.28 70.14 69.96 69.76 69.62 69.49 69.34 69.21 69.07 68.85 68.65 68.46 68.34 68.35 67.98 68.02 67.65 67.52 67.46 67.49 67.4 67.36 67.3 67.32 67.21 67.09 67.11 66.81 66.66 66.62 66.41 66.3 66.44 66.36 66.24 66.12 66.03 65.94 65.74 65.72 65.92 65.89 65.92 65.94 65.52 65.53 65.36 65.21 65.28 65.35 65.01 64.41 64.46 64.48 64.16 63.99 63.95 63.77 63.7 63.61 63.38 63.27 63.14 63.16 63.12 62.96 62.76 62.68 62.48 62.45 62.38 62.12 62.05 61.96 61.89 61.9 61.91 62.01 62.04 61.88 61.98 61.86 61.89 61.96 61.9 61.71 61.75 61.89 61.88 61.91 61.79 61.83 61.95 61.82 61.74 61.75 61.9 61.75 62.25 62.25 62.02 61.44 61.65 61.83 61.88 61.76 61.76 61.52 61.46 61.52 61.51 61.33 61.85 62 62.06 62.03 62.01 62.11 61.96 61.93 61.98 61.92 61.69 61.6 61.55 61.62 61.56 61.44 61.39 61.31 61.28 61.17 61.18 61.06 61.13 60.91 60.89 60.95 60.91 61 61.11 61.08 60.98 61.19 60.72 60.73 60.65 60.95 60.47 60.45 60.46 60.5 60.56 60.59 60.64 60.65 60.65 60.66 60.32 60.93 60.86 60.82 60.93 60.94 60.74 60.96 60.99 61.01 60.95 61.04 61.12 61.15 60.96 60.91 61 60.95 62.79 64.28 63.21 62.15 62.59 62.44 61.43 61.88 62 62.35 62.39 62.05 61.89 61.55 61.84 62.44 61.92 62.1 62.48 61.04 60.85 60.75 60.29 60.19 59.25 60.4 58.02 57.77 57.5 57.51 57.2 56.99 56.95 56.08 55.82 54.45 52.68 52.68 52.68 52.69 52.69 52.69 52.7 52.7 52.7 52.71 52.7 52.69 53.49 53.48 55.13 55.63 55.09 55.21 56.03 56.62 56.5 56.42 56.64 57.33 57.19 57.13 57.88 57.76 56.91 57.17 57.16 57.1 57.08 57.14 57.11 56.8 56.68 56.69 56.54 56.43 56.45 56.53 56.81 57.68 56.18 56.65 56.74 56.59 56.66 56.6 56.57 56.49 56.51 56.61 56.59 56.6 56.61 56.77 57.67 58.49 56.52 56.48 56.69 57.26 57.01 57.02 56.95 56.98 56.76 56.92 57.27 57.43 56.81 56.83 56.71 56.51 56.63 56.53 56.55 56.85 57.04 56.9 56.72 56.65 56.64 56.77 57.12 57.67 57.78 57.74 57.89 58.05 58.17 57.76 57.88 57.96 57.57 57.84 58.37 58.37 58.18 58.06 57.78 57.9 57.37 -9999 -9999 -9999 -9999 -9999 -9999 -9999 -9999 -9999 -9999
